# .PCD v0.7 - Point Cloud Data file format
VERSION 0.7
FIELDS x y z rgb
SIZE 4 4 4 4
TYPE F F F F
COUNT 1 1 1 1
WIDTH 1401
HEIGHT 1
VIEWPOINT 0 0 0 1 0 0 0
POINTS 1401
DATA ascii
26.619385 -72.318573 -48.387741 0
-30.145227 -75.741684 -37.597595 0
-28.127083 -69.817688 -42.94368 0
34.291332 -70.34523 -38.435608 0
-41.057667 -52.121433 -35.834911 0
40.32552 -25.885633 -36.452805 0
27.546503 4.9489965 -39.393654 0
27.73583 7.0812712 -37.82304 0
25.247702 4.5169549 -41.463276 0
26.747213 2.771018 -42.36483 0
25.432026 2.5808899 -43.985855 0
21.572844 1.3679469 -44.895508 0
-12.707892 28.659592 -35.748871 0
8.0562153 31.989647 -36.47414 0
33.333954 -66.313438 -41.796982 0
-39.663658 -57.504543 -35.558357 0
-40.089813 -53.988564 -36.891132 0
-36.547398 -48.934315 -42.533802 0
40.846272 -32.753124 -40.013081 0
42.415623 -36.284058 -39.660145 0
40.399521 -35.620739 -42.401939 0
39.283798 -36.931946 -43.684006 0
40.227661 -39.539204 -43.379616 0
38.515717 -40.685326 -44.731861 0
36.997654 -37.305916 -44.968204 0
36.71357 -40.041603 -45.930054 0
43.853344 -36.215546 -37.414623 0
42.557091 -31.233339 -37.199093 0
40.919411 -27.916613 -37.290096 0
-33.349091 -21.508045 -36.360542 0
33.774876 -14.725598 -36.90432 0
34.733467 -14.03196 -36.644684 0
33.844269 -14.1627 -39.621571 0
33.746948 -10.608208 -36.562878 0
33.099979 -13.049371 -40.532967 0
32.237656 -10.940664 -40.111355 0
31.904768 -8.9017582 -39.076473 0
30.686394 -9.1176891 -41.111343 0
29.124851 -6.9242449 -41.953957 0
34.778515 -11.897239 -35.932007 0
34.188759 -13.104966 -38.797928 0
33.809719 -9.5143633 -37.214649 0
-30.733753 -11.594538 -38.33596 0
-30.068357 -14.041718 -40.279995 0
-29.33625 -13.363712 -41.800995 0
30.80859 -0.53645277 -40.954109 0
33.890526 -0.94204754 -38.191525 0
32.10194 -2.1710267 -40.333447 0
21.809605 20.9328 -38.179108 0
-35.364994 -28.693996 -39.827049 0
-32.724815 -27.586988 -42.106796 0
-32.814301 -22.851851 -37.916298 0
31.629982 -17.055832 -39.973179 0
31.85358 -18.776554 -39.639179 0
29.322762 -19.25507 -41.807457 0
30.747686 -17.358673 -41.186737 0
29.47743 -16.155354 -41.922688 0
26.827469 -14.852143 -42.872536 0
26.573008 -13.884455 -44.125084 0
29.147177 -13.975944 -44.299141 0
31.173885 -13.44408 -42.853233 0
28.911003 -13.29139 -44.159527 0
31.836241 -12.406684 -41.478355 0
27.763597 -11.823767 -43.02058 0
27.474113 -10.695644 -43.216774 0
25.913002 -10.888333 -43.594715 0
26.012123 -8.7714891 -44.632442 0
24.500954 -10.839869 -44.995258 0
25.295074 -6.3533478 -43.767021 0
-31.080462 -3.7052011 -38.206215 0
-28.96693 0.14992888 -38.936867 0
-20.955353 6.6135874 -40.635113 0
-19.032085 8.0167456 -41.50449 0
-20.2409 5.7902269 -42.657158 0
-18.121332 6.4421091 -43.888485 0
-19.619913 4.5761704 -43.887386 0
-16.589542 4.4830804 -45.253811 0
-14.429092 3.8569822 -46.682449 0
-15.445465 2.5422592 -46.508995 0
-8.2937584 -4.954247 -48.896431 0
-5.5946198 -5.3303213 -49.10104 0
-5.8268814 -7.4371228 -47.870392 0
-7.6981778 -7.4607925 -47.121323 0
-6.5978222 -9.1637421 -45.588139 0
-8.6002903 -9.1201534 -44.997787 0
-11.489765 -9.4405851 -45.407986 0
-8.6399107 -11.567929 -44.20446 0
-11.479859 -12.251688 -45.216835 0
-12.208586 -13.735859 -44.04813 0
-11.087217 -14.270205 -43.655922 0
-13.093445 -14.32377 -43.558167 0
-12.747361 -17.241959 -43.943958 0
-14.364027 -19.800293 -43.390129 0
-15.457156 -21.241394 -43.527035 0
-21.60813 16.439651 -36.979496 0
-18.751827 21.409285 -37.557064 0
-15.274823 24.209263 -37.907257 0
17.963043 -82.402321 -40.8116 0
19.764 -82.619995 -43.548199 0
24.947998 -82.619995 -43.548199 0
-28.02326 -77.329613 -39.010872 0
-24.24901 -79.731644 -45.013485 0
-23.624054 -80.26712 -46.086891 0
-22.570744 -76.664742 -49.003731 0
-33.49287 -68.330307 -38.245808 0
-37.713276 -51.954887 -40.183975 0
42.782528 -45.67263 -40.681347 0
43.90374 -39.963753 -38.629185 0
-29.581549 -22.22785 -39.206753 0
-28.658144 -21.191963 -39.452084 0
-26.595791 -22.870281 -41.572968 0
31.872389 -20.235319 -38.898895 0
-29.683561 -10.973124 -39.928802 0
-26.728256 0.41930473 -41.141026 0
-22.10379 2.7995923 -43.611904 0
-25.182905 -1.2593914 -43.007648 0
-24.490021 3.0142667 -41.568565 0
-22.163082 4.584126 -42.402584 0
-22.289707 7.8837581 -39.061115 0
-24.384546 5.127646 -39.173973 0
-24.110092 6.3150468 -38.156162 0
-19.410807 10.945873 -40.574471 0
-20.303993 13.468248 -38.995491 0
13.994877 24.776709 -40.006512 0
13.13804 20.699951 -42.073769 0
10.844054 24.286539 -41.222221 0
-11.683369 25.547731 -39.026531 0
25.981525 -82.00386 -40.475876 0
29.504707 -76.814529 -40.202091 0
28.900339 -73.891212 -44.97942 0
27.49638 -75.350914 -43.801651 0
27.981285 -77.274414 -45.219654 0
26.143555 -78.057388 -44.135094 0
26.792864 -76.227821 -42.871334 0
-36.04071 -52.409332 -41.867165 0
40.132996 -46.383904 -43.176552 0
39.184635 -45.308762 -44.180687 0
37.300163 -44.796818 -45.834824 0
37.39439 -42.620216 -45.469971 0
34.796143 -41.702793 -47.851097 0
-34.000885 -54.165146 -43.136715 0
-35.266678 -48.251419 -43.971169 0
-33.855095 -49.916725 -45.023064 0
-36.691013 -44.08287 -42.827499 0
-33.390511 -25.531261 -40.296989 0
-26.476719 -24.607956 -43.761795 0
-31.488304 -25.979349 -42.000122 0
-28.495064 -18.604404 -39.316483 0
-25.437901 -15.176446 -41.426853 0
-23.806025 -15.78368 -42.916782 0
-26.370087 -16.90737 -42.996716 0
-24.296267 -16.668461 -44.132446 0
-24.708153 -17.80839 -43.533718 0
-24.438524 -17.898333 -44.417133 0
-23.105228 -18.711103 -44.073483 0
-24.163391 -19.104551 -42.380066 0
-21.286951 -19.456436 -42.766392 0
-22.138971 -19.959858 -40.41024 0
-20.924448 -20.392704 -41.545345 0
32.422573 -14.070024 -40.947006 0
-28.748627 -1.399716 -39.879318 0
-23.255857 -1.0104756 -43.959366 0
-23.144407 -3.7476809 -43.558182 0
25.154718 6.5280957 -40.68174 0
-16.087524 12.542701 -42.089588 0
-13.144583 12.443293 -43.727234 0
-5.5597467 19.189211 -44.082077 0
-2.1050606 20.760548 -43.924 0
-3.1371551 18.813816 -44.268303 0
-6.5344362 22.501249 -42.589462 0
-7.3979564 19.675182 -43.570377 0
-5.9053082 13.830306 -44.776115 0
-3.9091103 28.534868 -39.255455 0
-2.3411174 25.678049 -41.781425 0
5.8581238 21.736526 -43.179043 0
-23.332409 -80.629158 -44.614975 0
-22.425348 -80.46537 -43.335754 0
-23.50639 -81.796013 -43.967377 0
-23.342422 -82.233109 -45.205814 0
-22.678377 -82.619995 -46.137596 0
-21.708 -82.619995 -44.584995 0
-24.365551 -81.153976 -40.60244 0
-23.896669 -81.722549 -41.758392 0
-23.482067 -82.322258 -41.812824 0
33.333046 -63.061771 -43.27998 0
43.159306 -41.873196 -40.115246 0
-32.983826 -37.114498 -45.092926 0
-31.538097 -33.118996 -44.976112 0
-29.92145 -33.06953 -45.712196 0
-36.262291 -37.349697 -42.956802 0
39.402222 -31.135393 -41.176098 0
-30.924675 -23.701649 -40.828682 0
29.836739 -21.850409 -40.526432 0
30.735832 -20.296923 -39.613167 0
28.531187 -17.162762 -42.799969 0
28.588993 -15.747473 -40.832935 0
27.512711 -16.506552 -43.074028 0
26.40329 -15.795694 -42.621693 0
-25.593622 -19.948467 -40.462673 0
28.823797 -21.411573 -41.094845 0
-25.992382 -18.918249 -42.234188 0
-28.145624 -16.972466 -41.26083 0
28.113913 -15.371972 -40.816845 0
-24.576748 -14.596475 -42.568573 0
-27.343418 -11.072841 -42.733711 0
-25.728045 -11.555141 -43.72987 0
-23.208288 -9.4337406 -45.295437 0
27.956249 -2.187444 -43.659851 0
29.205645 -3.2378812 -42.691666 0
20.428289 17.03516 -39.711533 0
19.277559 16.820604 -40.628716 0
19.179264 14.54943 -41.890442 0
21.543066 14.681867 -40.813766 0
14.966013 15.744711 -42.705002 0
17.826441 17.760483 -41.077671 0
-6.1649179 25.362663 -40.940086 0
2.3594418 26.704624 -41.315891 0
2.6965723 21.140747 -43.838451 0
25.102188 -82.456345 -42.446869 0
25.270378 -82.619995 -44.064003 0
28.716133 -73.081589 -43.513878 0
29.286003 -72.558533 -45.119724 0
-30.399523 -59.94701 -45.619884 0
-28.552338 -59.594528 -47.132797 0
36.157131 -47.182339 -46.815689 0
32.945698 -48.913265 -49.044029 0
34.864635 -45.693626 -47.85358 0
34.058231 -51.232964 -47.609383 0
36.821148 -49.478508 -45.90971 0
36.387035 -54.278271 -45.262527 0
37.611073 -55.169411 -42.742577 0
36.337624 -57.083652 -43.264008 0
38.509544 -48.914085 -44.317558 0
40.893211 -42.123009 -42.931618 0
-36.971241 -41.382576 -42.858406 0
-28.754034 -24.300201 -42.31702 0
28.826031 -22.806953 -41.955204 0
30.427507 -24.472507 -43.785599 0
27.616692 -24.275839 -43.910683 0
25.914976 -23.351042 -43.752312 0
24.156752 -24.629587 -44.552807 0
21.623074 -25.173874 -45.260521 0
18.922998 -23.493887 -45.00071 0
20.2612 -25.404598 -45.858414 0
18.134878 -24.196507 -46.019226 0
18.583151 -27.077267 -46.998482 0
16.457701 -24.510174 -46.643272 0
17.063522 -27.497053 -47.959999 0
16.460119 -29.029102 -49.442329 0
15.096836 -24.91371 -47.379681 0
13.968057 -26.154358 -49.377716 0
31.478241 -22.991459 -40.8027 0
26.529327 -21.39459 -42.804775 0
27.383404 -18.550917 -42.838173 0
-22.462963 -20.776419 -40.570045 0
-27.734119 -12.82037 -43.462914 0
30.949371 -11.064083 -41.400818 0
29.788471 -9.5078335 -42.497726 0
28.363268 0.58600765 -42.468662 0
24.02879 9.1186476 -40.879662 0
-15.480989 8.8730803 -43.597481 0
-16.567472 7.6238079 -43.70755 0
-15.47785 5.3256226 -45.336643 0
0.025270965 22.987299 -43.240799 0
-2.567153 5.8933363 -48.392208 0
0.35025388 5.5658131 -49.034752 0
-1.8478942 2.4954917 -49.925243 0
1.1922046 2.1485419 -50.350235 0
-3.0057294 1.6360567 -50.249229 0
-4.151329 9.6891794 -46.366241 0
-2.760478 7.8011684 -46.958511 0
-5.7605724 8.272089 -46.772339 0
-6.3746653 10.772611 -45.643452 0
-7.9069901 8.0168667 -45.786777 0
-13.538011 2.3358178 -47.528385 0
-10.41091 4.335928 -47.977291 0
-9.5555286 1.4242632 -49.245869 0
-7.8377256 -0.25715682 -49.725327 0
-4.7874761 2.1743941 -49.838314 0
13.283999 -82.619995 -43.548199 0
13.931999 -82.619995 -42.511395 0
-19.599783 -82.441238 -41.712254 0
-16.524 -82.619995 -44.584995 0
27.568941 -75.357544 -43.022366 0
-30.902256 -57.732758 -46.000832 0
-31.909412 -58.560005 -43.580776 0
-29.135447 -57.326065 -47.319263 0
-27.153156 -57.690979 -48.948654 0
-27.452097 -55.654861 -48.740543 0
38.395618 -53.308022 -42.975029 0
37.365978 -52.161758 -44.636795 0
35.119507 -43.506252 -47.9669 0
32.628063 -44.123276 -49.406521 0
-35.473911 -37.980019 -43.912476 0
-31.370398 -37.045635 -46.410713 0
-29.583193 -37.923241 -47.96283 0
-34.581257 -43.218479 -44.846653 0
31.332775 -32.145279 -46.815048 0
34.375996 -26.769186 -43.353565 0
32.757957 -24.167397 -42.281441 0
33.220341 -26.333721 -43.761139 0
28.851131 -28.396721 -44.998425 0
-29.250296 -26.149563 -43.915436 0
27.646009 -22.158436 -41.705215 0
-19.875484 -22.314299 -42.658031 0
-17.318838 -21.242582 -42.273979 0
-17.991684 -22.901014 -44.007847 0
-15.617505 -22.442406 -44.118736 0
-22.326189 -17.695507 -45.210323 0
-21.705597 -14.10284 -46.128849 0
-22.942631 -16.730572 -45.216934 0
-22.616842 -14.952947 -45.341064 0
-23.089808 -15.918853 -44.42189 0
-21.763893 -15.15782 -43.794048 0
-27.511919 -14.371981 -43.560841 0
16.710905 12.044851 -42.614098 0
16.247179 13.922343 -43.148693 0
15.3883 10.952118 -43.886383 0
-12.880932 18.663607 -42.130562 0
-5.1438732 24.001247 -41.98175 0
14.58 -82.619995 -43.548199 0
-0.97200006 -82.619995 -44.584995 0
-6.6625409 -82.382416 -42.417404 0
32.414883 -65.317619 -43.430138 0
33.520542 -62.267689 -45.093288 0
35.19508 -59.693142 -43.092495 0
33.652683 -62.402225 -43.984333 0
32.454956 -63.558933 -46.003616 0
31.88833 -61.915665 -46.984138 0
35.472466 -57.413433 -45.254005 0
-33.804138 -35.122452 -44.24836 0
38.15493 -33.131626 -43.868713 0
-31.764246 -28.186501 -43.720657 0
25.057827 -21.417515 -43.314018 0
-24.026308 -24.922037 -43.942726 0
-25.518438 -26.955427 -44.650364 0
-19.092537 -20.621017 -42.610535 0
-23.46475 -18.395752 -45.409534 0
-24.602247 -17.329279 -44.886208 0
25.811621 -12.836987 -45.153721 0
26.635448 -13.018883 -44.315193 0
24.206615 -14.962337 -43.04166 0
28.049414 -9.2993298 -43.883118 0
26.356016 -7.5735335 -43.983025 0
27.604637 -0.45892707 -43.33395 0
-21.146185 -1.6091918 -44.955338 0
-19.390642 -0.11735608 -45.412048 0
-18.804001 -1.6153891 -46.340488 0
-22.420555 -4.4153786 -44.581306 0
-21.741333 -4.7488136 -45.148949 0
-13.896344 7.4320126 -44.39999 0
-13.380941 10.250467 -44.101143 0
-12.126847 6.912086 -44.824764 0
-27.002384 -71.60498 -45.354408 0
-27.692596 -69.759201 -44.149208 0
32.28775 -51.756447 -48.777126 0
39.661003 -42.778847 -44.049896 0
-33.011402 -45.568855 -46.321217 0
-30.569754 -46.048286 -47.730392 0
-33.585125 -40.572044 -45.43071 0
-29.287025 -29.498779 -44.645889 0
-11.896244 -19.815939 -43.760288 0
-6.665257 -20.872675 -48.241402 0
-8.212225 -21.501329 -47.069984 0
-6.5645905 -19.525209 -46.735157 0
-5.5123525 -22.791595 -49.612614 0
-5.4684472 -20.31604 -49.711624 0
-5.1420059 -23.005802 -50.865448 0
-6.7966037 -23.25927 -48.652344 0
-15.253886 -13.751067 -44.940739 0
-16.386694 -15.403449 -44.64917 0
-17.044044 -14.882999 -45.356827 0
-15.727902 -12.766038 -46.322773 0
-19.398304 -11.597971 -46.258217 0
14.45259 -19.038803 -43.572617 0
15.221176 -21.560266 -44.806507 0
11.868866 -18.30254 -43.872025 0
7.1647391 -19.746246 -60.198902 0
8.0757904 -19.934631 -56.9631 0
8.9146986 -23.108904 -59.876274 0
7.8615522 -24.365076 -65.01664 0
8.4284849 -26.623808 -65.919563 0
7.6229234 -26.527555 -68.090019 0
2.7145581 -30.206181 -73.155685 0
4.4219942 -28.643372 -73.202766 0
3.7033453 -31.700102 -72.683121 0
4.231463 -33.963665 -71.19175 0
5.5935326 -30.153671 -72.399734 0
5.9177942 -33.502144 -70.024025 0
7.1855454 -34.359737 -67.707726 0
8.336606 -33.614563 -67.984764 0
7.7472792 -34.938694 -66.273499 0
10.057578 -35.109905 -65.245079 0
11.532891 -37.59293 -61.705444 0
13.889385 -37.779015 -59.590576 0
12.932604 -38.623108 -59.593685 0
10.623358 -39.658817 -58.967865 0
12.070491 -39.035515 -59.084499 0
10.625915 -40.155231 -57.527187 0
-10.14032 -18.611759 -43.798805 0
-10.756334 -17.826767 -43.874058 0
-10.560386 -20.975395 -44.956558 0
-14.893924 -18.270596 -44.259712 0
15.494604 -9.4974422 -44.796402 0
13.34745 -8.8815689 -43.606743 0
15.435831 -8.440114 -45.180435 0
6.5030427 -2.8355737 -49.521439 0
5.6335545 -5.0726976 -48.772636 0
4.4483185 -2.0794599 -50.037544 0
2.0970664 -0.59840363 -50.353447 0
1.1984025 -3.8466477 -50.367882 0
-2.2365966 -0.26045659 -50.344234 0
-2.7840443 -3.8914001 -50.311497 0
-2.6058655 -5.8180609 -49.664291 0
15.453259 -15.346434 -43.494972 0
9.2344627 -19.642031 -49.16758 0
11.23709 -18.959505 -44.525257 0
-6.9907298 -17.292856 -43.745403 0
-5.0251112 -16.588919 -44.509529 0
-5.5602732 -17.642187 -44.78693 0
-5.367794 -18.594765 -47.628525 0
-4.6638503 -16.873396 -47.416527 0
-4.5218301 -12.44657 -43.462837 0
-3.8414309 -15.323864 -45.073864 0
-5.8132915 -14.983774 -43.970825 0
-6.9420795 -13.161554 -43.553734 0
-8.6991329 -16.233669 -43.506824 0
-14.3727 -16.592026 -44.223881 0
-16.434793 -14.00086 -43.62175 0
-14.50308 -13.732565 -43.948086 0
-14.115699 -13.00565 -45.97699 0
-15.497229 -7.117147 -45.437237 0
-17.067549 -6.3986645 -45.702332 0
-16.034109 -4.8676009 -46.599567 0
-16.999043 -2.8955386 -47.149227 0
-18.978409 -4.6232662 -46.086433 0
-20.258877 -5.8300085 -45.63821 0
-20.618238 -7.474515 -45.774837 0
11.665642 -15.860241 -43.614422 0
11.865909 -13.693801 -43.537216 0
10.353682 -15.40122 -43.486378 0
8.7407484 -13.311332 -43.47805 0
6.8228364 -14.544515 -44.641197 0
9.2966156 -16.131039 -44.654907 0
8.4821014 -16.574539 -46.849831 0
7.4264727 -15.398742 -46.869995 0
7.1774673 -15.530011 -51.649315 0
7.0249648 -13.982135 -49.738056 0
6.3511109 -12.902081 -50.14399 0
5.7143664 -15.66036 -55.708878 0
5.3875084 -12.653304 -51.757858 0
2.8550045 -12.573925 -54.378471 0
4.2637281 -12.568953 -53.254578 0
4.3955564 -14.847999 -56.563423 0
2.582582 -13.920421 -56.361649 0
-0.052060492 -13.178457 -55.017723 0
-0.77346528 -14.901564 -58.110863 0
-1.502386 -15.011833 -56.860012 0
-1.9314381 -16.478596 -58.572395 0
-0.30629903 -16.207119 -59.783543 0
2.0857542 -16.108999 -60.021049 0
3.5023928 -15.957071 -59.455791 0
-8.0008497 -19.336771 -44.992615 0
10.210678 -17.163525 -44.56139 0
7.7949495 -17.408001 -49.605488 0
14.317703 -11.539381 -44.169872 0
10.358815 -11.051904 -43.530289 0
8.6242619 -9.6311255 -43.532749 0
-23.934582 -13.973014 -45.646221 0
-25.835711 -13.818516 -44.294285 0
14.987262 -12.936567 -43.718246 0
-6.3127384 -11.266352 -44.212101 0
-2.9377389 -13.891343 -49.768883 0
-2.7242403 -11.787285 -49.626415 0
-2.4647787 -13.842202 -52.020073 0
-2.1398094 -18.621136 -63.108444 0
-2.2765791 -21.007256 -65.149818 0
-3.8848462 -21.877417 -64.366577 0
-3.6614668 -20.730057 -63.579052 0
-3.1212876 -18.418913 -61.095261 0
-3.8824785 -19.061213 -60.276772 0
-3.9682269 -17.603121 -56.768948 0
-14.864285 -12.244544 -46.380825 0
-17.362465 -8.4388256 -46.154526 0
-13.815869 -8.6854992 -45.710876 0
-4.9284472 -10.629124 -45.522972 0
-25.821329 -13.141303 -44.716782 0
-23.756163 -11.206597 -45.290428 0
13.173053 -7.5061903 -45.974968 0
7.8393097 -9.4992838 -46.217541 0
7.7887297 -11.984426 -44.12394 0
6.5846577 -11.956049 -48.265461 0
5.2062612 -11.011659 -50.189968 0
5.9978189 -10.823961 -49.205593 0
0.45804441 -10.824166 -52.484077 0
10.124938 -9.0681858 -44.282085 0
7.0188737 -9.0372181 -43.546883 0
8.3652153 -9.6421671 -45.044762 0
6.645853 -7.8731837 -47.599449 0
5.554894 -7.8582582 -48.43898 0
3.8623381 -6.8935914 -49.426914 0
3.9049447 -4.7846851 -49.633202 0
2.5397191 -6.4482765 -50.307358 0
-1.3310114 -9.1834211 -49.9916 0
1.1812179 -8.6787205 -49.721657 0
2.9164453 -9.3859844 -49.510117 0
-2.7281582 -10.897919 -48.994373 0
-1.4918966 -10.266396 -50.488247 0
-2.2666116 -11.339005 -50.8032 0
11.31565 -8.8049564 -43.965538 0
8.5937195 -8.6675301 -45.996986 0
11.210905 -8.0857391 -45.913265 0
7.8318219 -10.044656 -44.340073 0
22.03854 -4.9949636 -46.020767 0
23.253906 -6.5571904 -43.471985 0
22.639559 -6.3374691 -43.862064 0
20.37607 -6.6406317 -43.607044 0
-22.644016 -5.4718533 -43.760651 0
22.696257 -6.6459608 -44.28804 0
19.924236 -6.5350132 -44.314034 0
17.944983 -7.229032 -43.781151 0
26.208263 -1.2440951 -44.063095 0
-20.346413 1.4884888 -44.519962 0
-17.238815 -0.40953946 -46.954624 0
-15.168718 -1.9409013 -48.246258 0
-14.328966 -0.041557014 -48.120155 0
-13.593957 -2.16588 -48.445496 0
-10.438009 8.0777969 -45.385502 0
7.7171311 13.371517 -44.956188 0
2.6013906 14.768817 -45.150696 0
4.4536834 11.773351 -46.074013 0
2.7179601 18.479519 -44.425873 0
25.270378 -82.619995 -45.100803 0
24.329975 -80.838867 -47.794189 0
26.211159 -78.540764 -46.657791 0
22.831493 -81.01416 -50.320877 0
25.32168 -77.925629 -48.14053 0
19.266802 -73.319656 -55.652802 0
4.2119999 -82.619995 -44.584995 0
-6.1560001 -82.619995 -44.584995 0
-11.34 -82.619995 -44.584995 0
-22.063601 -79.915024 -48.142117 0
27.374577 -78.225952 -45.247677 0
28.897921 -72.034843 -46.012726 0
25.681442 -70.108459 -49.393871 0
25.224419 -67.387047 -50.495541 0
21.75461 -68.821419 -52.951672 0
16.293015 -69.475838 -56.368786 0
-24.428526 -69.638962 -48.246048 0
28.094032 -69.017006 -47.664707 0
21.207581 -66.899124 -53.911533 0
18.489168 -67.112167 -55.617104 0
16.431473 -67.166069 -57.09272 0
15.839401 -65.506859 -57.62162 0
29.806488 -59.790844 -49.85891 0
-25.007282 -58.565308 -50.412247 0
-22.820633 -31.530821 -48.234596 0
-21.09 -32.688702 -49.01474 0
-23.857151 -33.582233 -48.555359 0
-22.601494 -34.349865 -48.955719 0
-21.455059 -36.143044 -50.145584 0
-27.913963 -30.428383 -45.332504 0
28.394979 -30.324009 -46.811985 0
19.959335 -30.353842 -49.247597 0
18.101761 -31.229847 -50.047203 0
-25.883032 -29.068727 -44.852974 0
-24.183954 -28.318098 -45.408508 0
-23.60306 -29.316963 -46.406456 0
-25.704435 -30.709534 -46.955009 0
27.2386 -27.297821 -45.015751 0
25.012177 -26.293968 -44.87249 0
23.054651 -27.208698 -46.152092 0
20.823191 -28.698042 -47.705662 0
17.976892 -29.417915 -49.068802 0
14.363675 -28.253471 -50.887405 0
-20.506762 -27.545353 -46.582092 0
-16.231039 -31.223492 -49.262424 0
-20.133898 -30.01354 -48.056023 0
-19.061886 -27.100534 -46.659103 0
-12.881722 -28.469011 -48.640129 0
-12.914829 -30.20285 -49.314873 0
-13.720551 -33.316429 -50.0788 0
-11.911988 -31.947697 -50.0093 0
25.376812 -28.636864 -46.544983 0
14.854141 -22.961874 -46.451683 0
12.44696 -20.579702 -45.481174 0
-23.489315 -13.205803 -46.274094 0
-26.278198 -17.647802 -45.268906 0
6.6629014 -12.963423 -47.990459 0
23.820818 -12.614611 -45.19096 0
-2.5234308 -13.689452 -46.338642 0
-3.2100861 -15.062394 -47.649624 0
-3.469866 -16.082479 -48.429298 0
-3.3915107 -15.17569 -50.589531 0
-3.0882456 -14.910586 -52.341824 0
-2.5072007 -13.076015 -45.533005 0
6.8589735 -13.170465 -45.402283 0
-3.4263282 -11.275876 -46.546482 0
-4.4289589 -9.3318424 -46.488251 0
-9.95644 -7.1005869 -47.445324 0
13.126667 -6.893188 -46.807182 0
22.789555 -0.73342746 -44.959854 0
-17.393854 2.6429024 -45.004219 0
-12.536813 5.2560024 -46.824547 0
-8.6462851 5.3788514 -47.887215 0
-10.765579 6.3956604 -46.15818 0
-2.1729586 14.134302 -45.264023 0
-0.16058648 16.010508 -44.998718 0
2.8384168 10.112185 -46.4133 0
0.74007547 12.862101 -45.709785 0
-20.166889 -78.666634 -51.971802 0
-18.742262 -80.34613 -53.746948 0
-19.928734 -81.35125 -50.691689 0
28.382256 -74.885353 -45.884899 0
-26.353619 -60.518127 -49.199135 0
-26.073513 -63.526253 -48.446526 0
-22.692368 -65.64341 -50.224716 0
-23.34944 -62.417751 -50.196709 0
-19.294306 -63.292557 -52.780491 0
-18.567972 -60.856735 -52.626724 0
-17.769526 -63.415184 -53.787552 0
-20.27747 -59.769508 -50.793785 0
-23.452106 -52.639385 -52.507225 0
-31.222515 -41.829742 -47.3694 0
-28.941181 -33.985504 -46.879936 0
-26.695961 -40.600864 -49.424881 0
-16.535501 -25.57169 -46.42337 0
-21.83275 -10.362555 -45.903034 0
7.046669 -6.0207224 -48.238953 0
-20.069992 -8.9528742 -46.209888 0
9.6488104 -4.9935961 -48.621231 0
-13.76564 -6.1083269 -47.084778 0
-12.061736 -6.0161395 -47.617271 0
-11.046897 -8.0406418 -45.741856 0
21.831205 -7.3976965 -45.568344 0
-9.8267765 -4.2190752 -49.202198 0
-12.034079 -1.8554171 -49.17551 0
15.484056 -6.0528126 -46.707726 0
11.788804 -4.097611 -48.913288 0
12.870089 -2.3291759 -49.347473 0
13.767382 -1.5147433 -49.329582 0
11.500327 2.7155304 -48.626476 0
11.420442 -0.17042989 -49.25087 0
8.4942865 2.4269171 -49.34964 0
18.7099 3.3965189 -45.789097 0
4.9589424 7.5001955 -46.967976 0
4.7217207 8.6878929 -46.31636 0
5.7746005 10.731258 -46.113396 0
7.8233705 9.7367258 -45.624065 0
-3.2365639 11.790937 -46.017708 0
-1.4641495 9.5084152 -46.652668 0
1.665463 4.2338538 -49.533115 0
-19.764 -82.619995 -50.800606 0
-22.450323 -82.008301 -47.275337 0
-24.900297 -68.004242 -48.244278 0
-26.895893 -33.387596 -47.619003 0
16.629168 -31.075062 -50.48745 0
-11.42239 -29.446453 -49.688477 0
-5.5751548 -22.313143 -52.878941 0
-5.1082563 -20.412233 -51.309975 0
-4.9513178 -20.291645 -54.899902 0
-5.8279295 -22.151566 -54.895252 0
-7.1453352 -24.314053 -57.215744 0
-5.4761434 -22.070742 -58.904503 0
-6.6433549 -24.795033 -60.85363 0
-8.0723476 -26.881172 -57.834427 0
-7.6912336 -27.271423 -60.243904 0
-7.1307554 -27.905809 -62.321167 0
-7.3233094 -28.925741 -65.063538 0
-7.6439176 -30.251896 -66.334801 0
-9.2774248 -28.804821 -60.079605 0
-2.6811988 -7.9761858 -49.144791 0
-3.3974235 -7.4619608 -48.409008 0
11.91977 -5.9837723 -47.942902 0
-6.4961395 6.7265453 -47.560555 0
-4.0941062 3.1471326 -49.62355 0
6.0482349 6.2056994 -48.198345 0
2.3504951 7.7335477 -47.336773 0
-1.1275573 7.6633921 -47.434177 0
-17.877934 -72.669762 -55.050907 0
-17.925674 -71.378166 -54.180935 0
-15.457009 -71.571999 -56.806576 0
-16.391479 -73.84584 -56.767105 0
-14.360877 -72.045494 -58.361073 0
-11.748179 -80.984581 -62.970192 0
-13.196007 -79.337753 -61.839836 0
-10.025959 -80.391602 -64.269142 0
-8.1000004 -82.619995 -65.315796 0
-9.5288877 -81.821785 -64.538757 0
-7.2970109 -80.858421 -65.908272 0
-6.3327885 -80.461945 -66.638954 0
-4.5936384 -78.916206 -67.137901 0
-7.0196705 -76.166557 -65.776558 0
-6.1709886 -77.942314 -66.154091 0
-9.7238779 -78.569328 -63.962833 0
-9.9489508 -76.215355 -64.22892 0
24.504539 -82.068253 -47.790482 0
22.030378 -82.619995 -50.284798 0
23.59796 -79.137596 -50.605072 0
22.504669 -75.832016 -52.689453 0
-17.788437 -81.421089 -54.665367 0
-19.838438 -82.313919 -51.220001 0
-20.523758 -76.877258 -51.920547 0
32.089539 -46.363636 -49.513924 0
29.929083 -49.139553 -50.433418 0
27.936096 -47.098942 -51.375244 0
27.471081 -50.108269 -51.928226 0
25.32761 -45.840881 -52.496864 0
27.963848 -44.802734 -51.594059 0
24.406315 -46.887951 -53.116234 0
25.938236 -48.614311 -52.844452 0
22.559889 -48.549976 -55.959499 0
30.645695 -39.943569 -49.995132 0
25.570807 -43.190601 -52.187832 0
-3.9138663 -18.002371 -49.907528 0
-1.2006248 -6.5525603 -49.800346 0
-5.5085301 -0.32636738 -50.252716 0
-3.5926352 5.6731305 -48.328533 0
22.555708 -81.835785 -50.850052 0
27.413095 -57.462532 -52.104919 0
29.415569 -50.895855 -50.429207 0
-25.097065 -51.218987 -50.702652 0
-15.231731 -39.513161 -51.8442 0
-11.198661 -39.52565 -53.986286 0
-16.499903 -33.653206 -49.966782 0
8.1564226 -19.353117 -54.278255 0
6.9691963 -17.278061 -55.88475 0
-3.9491026 -17.303997 -54.554218 0
4.0811348 -8.57689 -48.850681 0
2.9746246 -8.8112087 -48.712879 0
-0.78298861 -11.782561 -53.028046 0
0.95473659 -6.9604654 -50.232609 0
-7.5099325 -2.3541615 -49.684727 0
8.4033766 -3.7586708 -49.355484 0
10.791849 -2.4166958 -49.345131 0
6.0118618 1.9551095 -49.786942 0
22.06056 -79.581352 -52.601227 0
19.359219 -64.077995 -55.223694 0
18.135405 -62.988258 -56.327835 0
17.750233 -60.998085 -56.511429 0
15.752484 -62.469765 -58.824276 0
14.814306 -60.891808 -59.512108 0
12.336428 -59.63995 -61.51273 0
14.845288 -58.684887 -60.192528 0
12.115675 -57.528011 -62.878147 0
13.710896 -56.83427 -61.556606 0
10.053274 -59.022633 -62.964504 0
6.7688975 -55.325233 -64.339111 0
7.8085957 -56.319988 -65.061172 0
5.0689363 -55.632713 -64.876701 0
5.5103331 -54.635052 -64.788925 0
27.122049 -64.603333 -50.052731 0
-21.576107 -61.728325 -50.936069 0
-24.465727 -60.691296 -50.046577 0
-21.63987 -48.93478 -53.229771 0
22.001614 -42.603424 -52.713802 0
-17.754063 -35.516838 -50.251228 0
-15.033636 -36.332661 -50.773819 0
-10.38575 -31.568104 -50.763237 0
13.099932 -26.935291 -51.660637 0
-6.7156873 -24.525866 -50.023495 0
-7.8356352 -25.662483 -51.785683 0
11.605509 -24.960276 -50.713089 0
9.7391949 -21.922314 -52.299389 0
-6.109499 -23.603998 -61.091286 0
-4.8033853 -21.616743 -61.278378 0
-5.5635395 -23.657934 -63.160538 0
4.3430567 -9.8569431 -49.956875 0
2.3600948 -10.435431 -51.819572 0
-0.18886763 -10.005019 -50.767639 0
-4.981019 -2.5156806 -50.060181 0
5.2818346 0.28865135 -50.398838 0
7.7987761 -0.66625255 -49.730698 0
22.030378 -82.619995 -51.321598 0
20.632195 -81.561783 -53.987717 0
21.059999 -82.619995 -52.874203 0
-18.790379 -82.619995 -52.358398 0
20.89901 -79.639626 -54.822838 0
-20.777775 -63.783142 -51.998329 0
24.768452 -50.006638 -54.224712 0
-19.99271 -42.464405 -51.618298 0
-17.433062 -43.002556 -52.402145 0
-20.985649 -40.487247 -51.222702 0
-17.884996 -40.450832 -51.563534 0
-10.423541 -32.24231 -52.045853 0
15.667257 -34.781975 -51.679958 0
-7.0960035 -24.540388 -53.664284 0
19.018784 -80.238647 -56.948593 0
18.63324 -81.987541 -55.592728 0
18.467999 -82.619995 -54.947803 0
18.14238 -82.619995 -55.468803 0
22.017368 -77.811981 -53.188217 0
-19.154913 -71.903625 -53.232483 0
-17.214668 -66.984665 -54.370358 0
-18.85854 -69.951385 -52.711807 0
-16.116413 -69.981728 -54.388329 0
-11.684406 -67.7724 -56.96439 0
-14.626352 -66.723785 -55.762749 0
-12.734976 -66.134315 -57.424927 0
-17.741636 -56.591122 -52.153774 0
-14.791482 -58.633644 -57.039177 0
-15.189176 -57.194115 -56.081093 0
-13.507925 -57.97728 -58.880966 0
-13.149921 -60.111423 -58.708485 0
-11.101323 -59.637016 -60.30286 0
-9.2757463 -59.483658 -61.811535 0
-10.861354 -57.130875 -61.759598 0
-10.477637 -54.968277 -61.062191 0
-9.1385832 -55.324741 -61.712536 0
-6.3573594 -53.374596 -62.070984 0
-5.7112374 -52.73447 -64.056465 0
-4.2317719 -52.943527 -61.970509 0
-3.6799369 -53.113468 -63.333462 0
-2.561646 -52.7276 -65.729385 0
-2.2501545 -53.301605 -64.382393 0
1.9792747 -53.91906 -65.74469 0
4.6665139 -52.015896 -67.011505 0
4.3387389 -53.12286 -65.60556 0
4.5057845 -53.275402 -64.199356 0
2.3771973 -53.590515 -63.306129 0
4.7212639 -53.473454 -62.377346 0
0.99065965 -54.292 -63.036949 0
0.42353278 -53.502525 -66.007118 0
-0.37678552 -53.658169 -64.935181 0
-1.4961833 -54.164749 -64.883972 0
-20.744129 -45.757401 -52.095585 0
-18.576515 -44.508461 -52.661049 0
-16.116619 -45.438805 -55.624004 0
-13.772891 -41.900314 -54.085648 0
16.491213 -37.50346 -52.161263 0
14.880877 -37.317596 -52.703972 0
14.52633 -36.197865 -52.976604 0
14.806921 -34.386028 -53.509819 0
14.915567 -35.231018 -56.844433 0
14.097909 -37.120453 -53.666245 0
12.775424 -38.522854 -52.938232 0
14.835816 -36.858463 -58.270725 0
13.105378 -38.590443 -57.441769 0
14.662743 -39.371952 -54.418457 0
11.20155 -39.649685 -54.74176 0
-10.257705 -37.301609 -53.93248 0
-11.395356 -36.60302 -56.009335 0
-11.362078 -36.179916 -59.139671 0
-10.678666 -38.056396 -57.101418 0
-10.547898 -37.643661 -59.527199 0
-10.080132 -37.059715 -60.696209 0
-11.396863 -35.114933 -60.629265 0
-9.4054346 -38.966541 -53.835663 0
-8.5665407 -38.957916 -52.958996 0
15.215723 -38.297859 -53.010216 0
14.838943 -32.586468 -57.303413 0
14.257846 -32.096619 -53.980846 0
11.387058 -25.422102 -56.17244 0
10.001056 -23.238029 -55.102829 0
9.445035 -21.703808 -54.475395 0
9.0687599 -24.621452 -61.528885 0
10.251034 -27.13324 -59.898125 0
9.2280474 -27.295374 -62.356838 0
10.238285 -29.449232 -64.535904 0
11.807254 -30.229784 -62.451981 0
10.593513 -30.626757 -65.422798 0
9.6025715 -30.391777 -66.907257 0
10.592106 -32.243896 -66.092918 0
8.8930044 -31.987074 -68.047302 0
9.5485744 -33.276722 -66.993835 0
-1.1414753 -13.415725 -54.208759 0
20.412001 -82.619995 -52.874203 0
-18.790379 -82.619995 -53.395199 0
-14.58 -82.619995 -60.131805 0
-14.585424 -81.844757 -60.096512 0
-19.171703 -77.994461 -53.713802 0
-18.12532 -75.742775 -55.03709 0
-16.589474 -78.115005 -57.714539 0
-15.018568 -75.045799 -58.576328 0
-14.004054 -76.986824 -61.068794 0
-17.142708 -80.021248 -56.49263 0
20.493727 -75.626823 -55.046268 0
-14.571637 -68.66021 -55.072487 0
19.916334 -57.80146 -52.928596 0
20.981173 -57.150211 -52.981918 0
20.381826 -54.545265 -56.266159 0
19.230093 -60.140881 -54.746986 0
19.216955 -56.803249 -54.855556 0
19.126444 -56.12006 -56.808994 0
20.419302 -55.763149 -54.036781 0
18.403732 -55.06813 -58.525272 0
18.868088 -56.773197 -52.835522 0
18.730192 -58.068768 -54.573547 0
17.214298 -58.361324 -57.432289 0
15.786277 -57.650272 -59.017044 0
12.739196 -56.531113 -61.59396 0
10.886654 -56.555878 -63.713478 0
10.840298 -55.144234 -60.339863 0
9.65205 -55.59515 -63.918545 0
9.490283 -54.238064 -60.886932 0
7.8796353 -54.319729 -61.176361 0
7.4600568 -53.380234 -62.47905 0
9.1821194 -53.748112 -62.281837 0
7.9462233 -53.640343 -64.083595 0
6.8905325 -53.28437 -65.460526 0
5.9066124 -52.637161 -66.259254 0
-17.721138 -53.464249 -55.811661 0
-17.22057 -55.509789 -53.308647 0
-21.397179 -51.886715 -53.983978 0
-17.322773 -50.716434 -56.511864 0
-20.063915 -47.214596 -53.683533 0
20.469509 -47.190197 -55.975277 0
20.207865 -48.660088 -57.04678 0
20.653019 -50.285477 -56.943142 0
22.22443 -50.792412 -55.228363 0
22.463881 -45.830593 -53.326862 0
21.966394 -44.207985 -53.183273 0
-17.004572 -47.09359 -55.84103 0
-14.781652 -46.420799 -57.647026 0
14.448882 -40.49662 -55.978065 0
11.597831 -40.453724 -57.941525 0
12.501526 -41.606766 -58.661652 0
10.708582 -40.894325 -60.191853 0
8.215024 -38.753868 -59.385963 0
9.7074356 -38.332336 -59.824303 0
15.962186 -39.71579 -53.955879 0
-9.5131226 -40.010239 -55.663998 0
-8.8105879 -39.085072 -54.828506 0
-7.1192541 -40.834972 -55.109909 0
12.218554 -38.984573 -54.586643 0
12.039418 -39.759987 -56.609798 0
-9.2514114 -38.711937 -55.047905 0
-8.0881119 -39.175552 -56.623974 0
-7.1802626 -39.073044 -55.204437 0
8.8391161 -28.590399 -67.901489 0
7.7867079 -28.551586 -69.981972 0
-15.256234 -65.513084 -55.713455 0
-16.40093 -63.092628 -55.085743 0
-16.876068 -59.930748 -54.37307 0
-13.782717 -62.350643 -57.866554 0
17.690634 -56.982586 -55.56369 0
16.585331 -56.493942 -57.221539 0
15.598968 -56.360714 -58.162437 0
13.760713 -55.1572 -59.119194 0
16.723881 -54.151367 -59.869804 0
14.745798 -53.825546 -60.685482 0
15.498404 -52.604568 -61.530468 0
16.620325 -52.353287 -60.921448 0
15.65085 -49.48243 -61.449764 0
14.429147 -48.188828 -62.554569 0
12.567517 -45.943707 -62.949757 0
15.790701 -46.580208 -60.096573 0
-18.709675 -49.926182 -55.22987 0
13.809088 -33.288662 -62.057732 0
12.248344 -33.635822 -64.57196 0
12.429285 -35.28997 -63.75613 0
19.116001 -82.619995 -54.947803 0
20.437222 -77.588654 -55.575195 0
18.375284 -77.994781 -58.117561 0
18.464252 -75.099205 -57.419956 0
-14.236311 -69.98587 -56.086411 0
-11.901972 -69.011795 -56.384178 0
9.6188383 -67.055038 -59.730385 0
12.28804 -67.292053 -58.93536 0
9.3376188 -68.414658 -58.933254 0
11.632005 -69.839592 -58.132027 0
11.120014 -68.791046 -58.197044 0
13.214542 -68.818184 -57.950199 0
12.63286 -70.21376 -58.238098 0
11.664272 -73.381172 -63.189541 0
11.839239 -71.086884 -61.704811 0
9.7943592 -74.664948 -64.786392 0
6.9090853 -76.433853 -67.199997 0
7.7491946 -72.723167 -66.095207 0
4.7914047 -72.646385 -67.869972 0
5.9922242 -74.786499 -67.822418 0
3.6743517 -74.671844 -68.060707 0
0.85269743 -73.064491 -68.121399 0
1.3851109 -68.672424 -66.108421 0
2.258604 -71.56472 -67.739365 0
-0.63243276 -71.899597 -67.983185 0
-2.3232968 -71.419357 -67.15023 0
-5.189518 -71.318306 -65.603477 0
-3.6751344 -72.222389 -66.69696 0
-4.0509896 -68.663193 -63.531071 0
-5.2579622 -69.365288 -63.751633 0
-5.2709274 -68.029053 -62.558285 0
-4.8626094 -68.779602 -61.857422 0
-7.7952394 -68.581703 -57.87587 0
-7.8263636 -67.30011 -58.253124 0
-6.1896448 -67.289513 -59.040176 0
-5.1646476 -66.201912 -60.191704 0
-6.3887696 -65.054016 -61.163708 0
-8.5393047 -66.195274 -59.37495 0
-7.5220318 -63.000015 -62.49752 0
-9.3384066 -65.069885 -59.896381 0
-10.556082 -62.799522 -60.903358 0
-12.32849 -61.710899 -59.668953 0
-14.993146 -55.549492 -56.73378 0
-12.948755 -55.51437 -58.315384 0
-11.386569 -54.424648 -60.761036 0
-10.612133 -53.21896 -62.047768 0
-9.0611925 -53.556171 -61.825806 0
-9.4017096 -51.826309 -63.733059 0
-7.7303476 -52.523262 -63.970203 0
-9.9483786 -49.232948 -63.405563 0
-7.9429493 -50.541733 -63.275742 0
-6.3389502 -40.166492 -59.0485 0
-5.9928994 -38.88765 -59.193344 0
-4.2250152 -39.422062 -59.409134 0
-5.0389862 -37.855984 -59.281876 0
-3.8291228 -36.189533 -60.426559 0
-4.4969907 -36.872486 -59.822163 0
-4.5328279 -35.890224 -59.121544 0
-4.4927411 -34.016315 -58.915257 0
-2.7278199 -34.344742 -58.745102 0
-0.058219776 -33.970737 -58.826477 0
1.4766217 -33.581257 -58.854855 0
1.6062443 -35.022717 -58.967056 0
8.0744123 -33.852837 -59.043076 0
5.8132124 -35.038589 -58.766392 0
7.3724203 -32.539104 -59.360085 0
8.02318 -33.131702 -60.878384 0
8.8906279 -34.717903 -63.141796 0
9.3895969 -33.960358 -59.966625 0
10.178915 -35.691612 -63.652786 0
-18.134928 -51.802296 -55.741196 0
-11.536919 -41.976158 -55.767033 0
-10.654469 -40.388332 -55.29039 0
13.109744 -40.132854 -55.91713 0
-9.4855509 -40.808235 -57.069572 0
-8.8463411 -40.958035 -57.914364 0
-8.4236202 -39.252335 -58.210464 0
-7.4457455 -39.069366 -59.254578 0
-8.5641108 -38.431183 -60.011635 0
-7.7368288 -37.362411 -60.797176 0
-7.364368 -36.129799 -59.183506 0
-6.5832586 -35.486347 -58.797848 0
13.261209 -30.310675 -57.716904 0
11.631247 -28.614202 -60.164974 0
17.015753 -78.700562 -60.065964 0
16.365271 -77.050934 -60.653294 0
13.821425 -75.149338 -62.370823 0
12.690683 -76.044624 -63.554565 0
-12.285587 -64.214249 -58.561733 0
14.441252 -56.442783 -59.690067 0
18.17453 -46.354088 -57.387131 0
-6.0596356 -40.079948 -56.354225 0
-7.6112962 -40.133499 -57.538002 0
-3.7858629 -38.990303 -60.079517 0
14.81953 -32.912987 -59.520851 0
6.6267586 -18.288828 -59.852734 0
6.0923128 -22.57259 -66.093231 0
5.9635224 -25.776394 -69.847 0
4.7281799 -23.392414 -68.726868 0
18.14238 -82.619995 -57.542404 0
17.213181 -81.625656 -59.461849 0
16.068544 -81.547882 -60.888195 0
14.707569 -78.896126 -62.373039 0
-14.555532 -79.152748 -60.460049 0
-12.992098 -81.672195 -61.771736 0
-12.684747 -72.184891 -59.603603 0
-10.837222 -72.930069 -61.863194 0
-11.522518 -76.233826 -62.656906 0
-11.186344 -78.408745 -62.74818 0
-8.674408 -68.976067 -57.830334 0
-7.1189923 -69.980156 -62.811447 0
-8.663846 -71.86409 -62.880081 0
12.146841 -63.530807 -61.430676 0
15.321922 -63.708679 -59.068375 0
13.327703 -66.400772 -58.998112 0
9.2879896 -65.191055 -61.649818 0
7.5462198 -66.735275 -59.729942 0
6.4577255 -67.636452 -59.896336 0
4.9431958 -66.816689 -60.104538 0
4.3717966 -65.590813 -61.049622 0
1.57077 -64.140457 -62.824806 0
4.8487206 -63.715237 -63.451134 0
7.9276233 -65.248535 -62.106144 0
6.7239084 -65.196945 -62.187466 0
5.8494768 -62.496109 -64.429749 0
8.9694567 -63.096363 -63.488571 0
7.1327915 -61.407009 -64.838249 0
9.8160028 -61.49646 -63.594994 0
7.7756605 -59.73629 -64.133629 0
5.5958281 -59.194248 -64.447083 0
5.3046308 -54.563499 -64.113808 0
13.615163 -62.254257 -60.688354 0
12.157779 -62.02108 -62.262035 0
8.7547703 -57.311512 -64.721863 0
16.96571 -56.149391 -58.222729 0
17.561363 -53.260506 -60.026955 0
-12.376614 -56.81831 -59.925377 0
-11.494869 -55.094025 -59.486805 0
5.1732531 -16.906616 -58.993717 0
4.7015328 -18.101683 -61.829124 0
16.51442 -75.237671 -59.571674 0
-7.2624664 -69.490738 -60.934727 0
10.583514 -70.012657 -59.775803 0
8.1019983 -69.579262 -59.778233 0
8.3488388 -69.871155 -60.380943 0
3.6969895 -70.237419 -66.71785 0
7.9479237 -70.988808 -64.475098 0
9.750474 -72.930923 -64.473106 0
9.4437599 -71.493996 -63.456051 0
10.335029 -70.048149 -62.092274 0
8.9841404 -68.886856 -61.87672 0
12.04974 -70.681969 -60.046921 0
15.284642 -54.908981 -58.498161 0
-14.471657 -54.335148 -58.774338 0
14.913889 -35.528965 -59.795876 0
14.318624 -35.141846 -61.506088 0
-13.931999 -82.619995 -61.168606 0
-13.283999 -82.619995 -61.168606 0
-8.3660641 -69.805283 -61.040249 0
5.7332621 -68.159866 -62.072498 0
6.2127104 -68.928207 -61.456081 0
5.834197 -67.309143 -63.369617 0
7.848609 -67.922348 -59.167305 0
6.4411273 -68.509232 -60.214722 0
-3.8216081 -69.245956 -61.228413 0
-1.0468632 -68.972977 -63.149158 0
-1.9208398 -68.808205 -64.418732 0
3.3086777 -68.814751 -65.560509 0
5.4671812 -69.360306 -64.797096 0
-5.0726089 -68.964615 -60.195915 0
-6.5004077 -69.468834 -60.294991 0
13.05202 -55.696247 -59.109032 0
12.17312 -54.799614 -59.181087 0
11.228205 -54.05397 -60.206863 0
13.737689 -54.528984 -61.486145 0
13.014403 -54.249901 -62.941105 0
10.537851 -52.375919 -64.026917 0
10.369379 -53.581211 -63.624893 0
9.5160923 -52.527603 -65.945175 0
8.4563236 -51.203117 -64.316078 0
7.9990234 -52.15419 -65.711716 0
9.7675991 -51.023613 -63.257767 0
13.009683 -52.31271 -62.703785 0
11.907739 -53.354561 -63.881397 0
14.196425 -52.666355 -61.606575 0
13.674377 -50.396767 -62.023949 0
-10.769419 -54.862904 -59.472458 0
-5.7636504 -41.244789 -61.15847 0
-4.1230998 -40.510506 -61.691208 0
6.8840594 -41.869568 -64.32695 0
5.3337307 -39.597034 -64.457512 0
6.1938381 -38.200706 -63.051365 0
1.8881787 -41.069832 -64.924721 0
4.2117014 -39.917744 -64.834557 0
5.1423016 -43.201851 -64.858284 0
7.7956777 -40.888622 -61.730911 0
8.16506 -39.688293 -59.720013 0
9.1808605 -44.343948 -64.230019 0
10.712433 -42.961403 -62.004677 0
9.6077662 -45.823032 -64.721382 0
12.330544 -47.534679 -63.324814 0
9.1282272 -36.949268 -59.224083 0
7.9202809 -36.998116 -60.10054 0
10.621906 -37.546394 -61.442566 0
6.492908 -36.460033 -62.353298 0
4.700438 -35.615318 -64.736633 0
5.1102471 -34.478249 -63.484043 0
4.7107377 -37.005882 -64.700424 0
2.0995541 -36.711445 -65.012207 0
7.1338806 -36.251179 -59.616917 0
5.5170069 -36.006744 -59.404423 0
9.1537628 -35.67934 -58.890701 0
10.255232 -35.675602 -59.139652 0
10.379093 -35.217842 -60.076694 0
10.641376 -36.13588 -62.382614 0
0.0073218811 -36.297165 -59.238785 0
1.8989717 -36.125835 -59.45388 0
-1.3164891 -35.749004 -59.416531 0
-1.6420715 -34.137878 -63.918324 0
-3.7004511 -35.262775 -62.460289 0
-1.2192734 -33.456615 -63.208107 0
-2.0721574 -33.930023 -61.534634 0
-1.19326 -33.995098 -61.354542 0
-2.4555964 -36.028637 -59.229637 0
-7.0185046 -34.536812 -61.195633 0
-7.4848471 -34.63969 -59.223816 0
-7.841229 -36.081776 -62.374374 0
-5.9780159 -33.757797 -59.114048 0
-5.9147582 -33.685493 -60.873589 0
-5.0174112 -32.019859 -60.806114 0
-4.736599 -32.40202 -59.210548 0
-3.1960957 -30.220446 -62.367847 0
-3.3668649 -30.05946 -64.364052 0
-2.0402005 -27.968277 -61.025455 0
-2.0370388 -27.702675 -64.246193 0
6.1867843 -31.561016 -58.791416 0
7.5309172 -33.391735 -64.627289 0
8.3212175 -32.107426 -65.178825 0
7.1816592 -32.614166 -67.960648 0
6.5380349 -30.617207 -69.08551 0
6.5059085 -32.251892 -68.927811 0
5.1744528 -32.264442 -68.945854 0
7.8997869 -33.261841 -62.960194 0
7.345644 -31.788641 -62.7813 0
3.9991179 -32.428558 -58.756897 0
1.8406041 -31.970989 -59.460342 0
3.171536 -31.098303 -59.328178 0
2.8764648 -29.293829 -64.737953 0
3.1249964 -27.116871 -67.791153 0
3.2263114 -27.819727 -64.211716 0
2.7330139 -26.367109 -63.377571 0
2.2824328 -26.127857 -61.734734 0
3.1137009 -28.09301 -61.313232 0
3.5108459 -28.150482 -59.421139 0
3.1457224 -25.453587 -58.89534 0
4.3567166 -28.214172 -58.747677 0
5.0592237 -25.971088 -59.109276 0
4.8540583 -28.284256 -59.414253 0
4.1639009 -27.896481 -61.583561 0
5.1112471 -28.977057 -62.932632 0
4.7547889 -27.603912 -63.66925 0
4.7423339 -26.122847 -61.819241 0
5.1650114 -25.912642 -64.578697 0
4.7734113 -24.97508 -63.935741 0
4.6342363 -25.334059 -66.899223 0
-3.391278 -30.316532 -58.842094 0
-1.8364383 -29.97683 -58.943027 0
-0.81025988 -29.05299 -63.999367 0
-0.24352704 -27.671297 -60.973278 0
-0.6853981 -27.240662 -64.389008 0
-0.60006738 -28.157949 -67.253258 0
1.9049826 -31.291695 -65.054039 0
1.5666747 -30.227631 -67.380882 0
2.5362279 -30.562304 -64.930695 0
7.6371727 -30.89267 -58.977581 0
7.6758037 -30.917797 -60.148239 0
4.4253449 -30.306381 -59.002769 0
3.3877072 -29.75157 -60.308445 0
0.26803839 -31.683619 -59.748257 0
1.5155714 -31.587191 -61.077187 0
-0.5942772 -30.235224 -59.694653 0
-0.2367042 -30.147915 -60.165226 0
-0.26728013 -28.785429 -59.326332 0
-0.87251908 -27.950413 -58.999992 0
-2.7509136 -29.962093 -59.581413 0
-1.8869547 -28.204241 -66.563805 0
-1.16377 -28.057194 -67.865723 0
-1.536991 -26.373066 -66.250549 0
-4.893683 -30.500538 -59.699791 0
-11.104158 -33.688354 -61.209278 0
-9.1657438 -34.505669 -64.064545 0
-9.4849949 -35.596081 -62.970116 0
-8.5423689 -35.950275 -63.113369 0
-7.1760187 -35.071484 -65.426964 0
-6.9742432 -33.792175 -67.055527 0
-8.4170885 -32.524342 -65.289322 0
6.1924634 -30.772449 -62.625622 0
6.2313318 -30.10668 -68.380539 0
4.6439147 -28.478836 -66.991379 0
3.6419196 -29.081007 -69.190933 0
2.816016 -31.927357 -69.082497 0
5.0775175 -33.82835 -69.284187 0
3.3727837 -33.737392 -68.608521 0
4.8614855 -34.178589 -68.89785 0
1.8469943 -35.567833 -68.203407 0
2.9959948 -35.619843 -69.390099 0
1.2574338 -34.877419 -71.88768 0
-0.64366686 -34.517467 -72.425903 0
0.74099481 -33.440948 -73.090591 0
5.7577624 -29.544518 -60.76865 0
5.3448048 -29.537094 -58.953377 0
-0.050895818 -26.202675 -61.182373 0
-0.40815085 -26.046268 -59.20211 0
-1.0115906 -25.12895 -58.908836 0
-1.6052339 -24.902367 -59.914589 0
-1.8476993 -23.168623 -59.754822 0
-0.39783609 -24.719751 -61.409206 0
-0.70811921 -21.945366 -60.365456 0
-1.4276528 -21.822706 -59.702526 0
-0.96474242 -25.108498 -62.465378 0
-1.8615406 -25.796644 -61.408913 0
-1.0755963 -24.904152 -64.953308 0
-0.38751781 -25.611864 -62.611706 0
-1.1683562 -26.178028 -65.025688 0
3.1953938 -24.547518 -59.271591 0
4.1101623 -25.184761 -62.143566 0
-2.26828 -27.482824 -59.157284 0
1.7077935 -24.909174 -60.214905 0
-0.78109193 -21.589329 -58.914894 0
0.48718405 -22.463326 -58.914597 0
0.26626477 -23.096947 -60.756783 0
1.4345961 -22.900639 -59.810486 0
1.3673788 -23.976038 -59.333244 0
2.326345 -22.938469 -59.156178 0
3.6594892 -21.752449 -59.021156 0
4.6676593 -22.42885 -59.652199 0
1.3651741 -22.01478 -59.39595 0
3.4518476 -21.285431 -59.550209 0
6.591466 -21.938723 -64.232101 0
16.524 -82.619995 -60.131805 0
15.876 -82.619995 -60.131805 0
3.7977591 -68.201012 -61.300522 0
4.0184608 -68.765076 -62.611794 0
3.4835782 -66.850883 -60.815353 0
-3.2552862 -67.671127 -60.725353 0
-2.8178945 -65.493797 -60.758102 0
-3.3369601 -63.679039 -63.113976 0
-0.36377162 -64.820969 -62.138527 0
-1.2192734 -63.189758 -63.659847 0
0.14016016 -63.578796 -63.471542 0
2.0562549 -62.090981 -64.659401 0
0.64313465 -68.950539 -63.476688 0
-0.91065395 -68.916 -61.890015 0
1.7831979 -68.669304 -62.374538 0
-2.9386754 -66.502823 -60.124229 0
-5.6034861 -64.014664 -62.668953 0
-5.5473323 -62.337166 -63.762428 0
-6.599894 -61.120724 -63.855236 0
-6.1059618 -58.264542 -63.328445 0
-7.8823819 -58.791454 -62.321728 0
-9.4434509 -57.366142 -62.469494 0
-9.8423977 -61.275898 -61.740673 0
-8.1814594 -55.64666 -63.269802 0
-5.7243996 -54.799194 -61.638382 0
-6.632544 -54.190796 -60.853973 0
-10.268694 -47.216629 -62.749702 0
-9.6513195 -45.641575 -62.396896 0
11.708744 -50.085369 -62.367603 0
9.0411263 -42.791157 -63.027016 0
-3.2754505 -40.109749 -63.131714 0
-2.7017798 -41.572727 -64.078667 0
-4.7754655 -43.271187 -64.211899 0
-2.9540873 -43.227219 -64.92942 0
-6.0544701 -46.116997 -64.727806 0
-6.473774 -45.676182 -64.514084 0
-7.993782 -46.904053 -63.86797 0
-7.5056386 -44.372543 -62.69817 0
11.261135 -36.029907 -63.300358 0
-3.9277341 -36.195606 -62.234993 0
6.128396 -35.66777 -61.314125 0
2.8603632 -36.11211 -60.569958 0
5.0061502 -34.817604 -60.958107 0
1.8237063 -33.773788 -64.102165 0
2.8586774 -33.187695 -62.901512 0
4.3199282 -33.263367 -63.588509 0
1.2681363 -34.829498 -64.806252 0
0.98873329 -33.424114 -63.608192 0
0.28771201 -33.281826 -64.992264 0
-0.35646015 -34.222736 -65.064911 0
-0.94721359 -33.10659 -64.856201 0
0.62568319 -34.788502 -61.769962 0
2.8408737 -30.830837 -60.710239 0
0.45681131 -31.178114 -65.139748 0
-0.50727034 -31.089027 -62.392624 0
-0.31228489 -30.389406 -65.527794 0
-0.18311271 -29.895214 -68.27224 0
-4.0197978 -30.693867 -61.520741 0
-4.5271749 -31.379078 -62.887779 0
-4.0417495 -30.601063 -65.565224 0
-1.5370865 -25.379484 -64.841759 0
3.0278349 -25.446457 -62.474533 0
6.0302477 -27.137276 -71.396484 0
6.1684942 -19.96505 -62.295586 0
-0.22876093 -18.198252 -63.293858 0
-0.029984256 -19.366329 -64.928093 0
-1.3357579 -22.249981 -67.380325 0
14.58 -82.619995 -62.20541 0
14.193093 -81.778374 -62.451206 0
12.312911 -80.016777 -64.640266 0
12.367911 -82.067566 -63.826134 0
13.283999 -82.619995 -62.20541 0
11.988 -82.619995 -64.279007 0
-12.636001 -82.619995 -62.20541 0
-11.988 -82.619995 -62.20541 0
-11.34 -82.619995 -63.242203 0
-10.691999 -82.619995 -63.242203 0
8.2029543 -69.102211 -63.374355 0
1.3695346 -68.412201 -64.715546 0
-0.38862026 -68.078125 -65.448654 0
0.69105279 -67.211578 -61.458347 0
0.62975794 -65.775558 -61.755676 0
-1.3851987 -66.446548 -60.981674 0
9.189558 -54.903126 -61.432732 0
7.0264158 -54.793388 -62.340042 0
-3.662087 -54.415516 -61.896095 0
-4.8674045 -53.560268 -60.786961 0
-5.0807152 -54.740105 -64.007423 0
-1.4285783 -53.870861 -61.82151 0
-0.83580595 -54.796738 -64.375465 0
0.53804249 -53.280571 -63.539196 0
-5.5323687 -55.590977 -64.978691 0
-5.9823427 -56.888367 -64.710487 0
-7.6667871 -56.339012 -64.076401 0
-4.007216 -58.418674 -64.208008 0
-3.0374045 -53.685238 -62.09724 0
-0.26340801 -52.673706 -63.173988 0
-7.2264094 -35.618122 -63.518234 0
-5.545753 -34.827629 -64.453362 0
-5.1052103 -33.752754 -64.146652 0
-5.2143526 -32.027996 -64.241722 0
-5.5185394 -32.444576 -65.910538 0
-4.9752417 -32.295021 -66.87693 0
-4.0588064 -33.963646 -65.794998 0
0.40642011 -31.71847 -62.576233 0
-1.0987329 -29.923714 -63.023293 0
-6.1083746 -26.273642 -64.883682 0
-4.5976963 -25.093548 -66.591698 0
-3.7127523 -26.897692 -70.495895 0
-3.1535385 -24.339455 -68.339012 0
-1.6135739 -24.374107 -69.669815 0
