# .PCD v0.7 - Point Cloud Data file format
VERSION 0.7
FIELDS x y z rgb
SIZE 4 4 4 4
TYPE F F F F
COUNT 1 1 1 1
WIDTH 298
HEIGHT 1
VIEWPOINT 0 0 0 1 0 0 0
POINTS 298
DATA ascii
62.209019 -154.17018 1478 2.1211945e-39
59.665318 -154.58742 1482 2.2133902e-39
56.953259 -154.58742 1482 1.6609381e-39
54.058201 -154.06587 1477 1.8449734e-39
51.355289 -154.06587 1477 1.2918024e-39
48.685318 -154.17018 1478 1.3832778e-39
67.938751 -157.61789 1485 3.9629379e-39
64.606316 -156.13194 1471 3.3190175e-39
61.746029 -155.70738 1467 1.8453293e-39
59.06142 -155.70738 1467 1.6609381e-39
56.338379 -155.60124 1466 1.4761909e-39
53.582397 -155.38896 1464 1.3832778e-39
64.562401 -158.7159 1470 1.5858343e-38
61.66185 -158.17604 1465 1.5582122e-38
58.940639 -158.06807 1464 1.5582845e-38
56.184658 -157.85214 1462 1.5951629e-38
53.436001 -157.6362 1460 1.5859078e-38
50.69466 -157.42026 1458 1.6043469e-38
61.78812 -161.1864 1468 1.3646738e-38
58.9809 -160.85699 1465 1.4108081e-38
56.223087 -160.63739 1463 1.4108082e-38
53.472599 -160.4178 1461 1.4476865e-38
50.729427 -160.1982 1459 1.4569061e-38
48.0924 -160.308 1460 1.4937843e-38
45.45171 -160.4178 1461 1.4845647e-38
42.865921 -160.74719 1464 1.5122234e-38
40.186798 -160.74719 1464 1.4753452e-38
37.584538 -161.0766 1467 1.4200278e-38
35.018879 -161.6256 1472 1.4199558e-38
32.654518 -163.2726 1487 1.594983e-38
56.26152 -163.42632 1464 1.5029318e-38
53.509197 -163.20306 1462 1.521443e-38
50.729427 -162.86816 1459 1.5766883e-38
48.0924 -162.9798 1460 1.604347e-38
45.482819 -163.20306 1462 1.6136386e-38
42.895199 -163.53795 1465 1.6044191e-38
40.214249 -163.53795 1465 1.6412973e-38
37.63578 -163.98447 1469 1.5675408e-38
35.161621 -164.98914 1478 1.4291753e-38
53.472599 -165.76506 1461 1.0696124e-38
50.729427 -165.53813 1459 1.0972711e-38
48.0924 -165.6516 1460 1.0788319e-38
45.513927 -165.99197 1463 1.0973431e-38
42.895199 -166.2189 1465 1.1157102e-38
40.241699 -166.33235 1466 1.0604648e-38
37.687019 -166.89966 1471 1.0420257e-38
35.256779 -168.14772 1482 1.0327341e-38
53.362801 -168.09282 1458 1.3001735e-38
50.625118 -167.86224 1456 1.1987227e-38
47.99358 -167.97752 1457 1.16188e-38
45.389488 -168.2081 1459 1.16188e-38
42.807358 -168.55397 1462 1.1526249e-38
40.186798 -168.78456 1464 1.2356009e-38
37.63578 -169.36101 1469 1.3370161e-38
35.161621 -170.39862 1478 1.4383949e-38
55.761929 -169.94112 1451 1.9087012e-38
53.106598 -169.94112 1451 1.9271403e-38
50.451267 -169.94112 1451 1.9455795e-38
47.86182 -170.17535 1453 1.9732382e-38
45.23394 -170.29248 1454 1.9455795e-38
42.63168 -170.52672 1456 1.9363599e-38
40.049549 -170.87808 1459 1.9271403e-38
37.43082 -171.11232 1461 1.8165056e-38
34.876141 -171.69792 1466 2.0469945e-38
32.369038 -172.63487 1474 1.9824577e-38
58.215958 -172.00169 1446 1.8533841e-38
55.531349 -171.88275 1445 1.8626037e-38
52.886997 -171.88275 1445 1.9087015e-38
50.242649 -171.88275 1445 1.9271403e-38
47.664181 -172.12065 1447 1.9271403e-38
45.047279 -172.23959 1448 1.9087012e-38
42.455997 -172.47749 1450 1.8994819e-38
39.829948 -172.59645 1451 1.8902624e-38
37.225861 -172.83435 1453 1.8902624e-38
34.638241 -173.19119 1456 2.0469947e-38
32.105518 -173.90489 1462 2.1852159e-38
29.611229 -174.97545 1471 2.2497164e-38
58.095181 -174.28554 1443 1.7887749e-38
55.454491 -174.28554 1443 1.7518966e-38
52.6674 -173.80241 1439 1.7518966e-38
50.034031 -173.80241 1439 1.7334575e-38
47.433598 -173.9232 1440 1.7703357e-38
44.891727 -174.28554 1443 1.7334575e-38
42.338879 -174.64787 1446 1.7611885e-38
39.747601 -174.88943 1448 1.7519689e-38
37.123379 -175.01022 1449 1.8072863e-38
34.519291 -175.25177 1451 1.7610806e-38
31.951799 -175.73489 1455 1.7149828e-38
29.45019 -176.70114 1463 1.807214e-38
57.9744 -176.5584 1440 1.4383594e-38
55.377628 -176.681 1441 1.4936768e-38
52.484398 -175.82274 1434 1.5213354e-38
42.1632 -176.5584 1440 1.5306271e-38
39.610348 -176.92622 1443 1.4937133e-38
37.04652 -177.29405 1446 1.4844937e-38
34.495499 -177.7845 1450 1.4291763e-38
31.907879 -178.15233 1453 1.4660546e-38
29.369669 -178.88799 1459 1.4660902e-38
57.893879 -178.94472 1438 1.3277245e-38
55.185478 -178.69583 1436 1.309321e-38
42.075359 -178.82028 1437 1.2724793e-38
39.528 -179.1936 1440 1.2632598e-38
36.944038 -179.44247 1442 1.2816989e-38
34.400341 -179.94023 1446 1.3277247e-38
31.841999 -180.438 1450 1.2263815e-38
29.28915 -181.0602 1455 1.253968e-38
55.147049 -181.19745 1435 1.3001379e-38
52.301399 -180.43982 1429 1.253968e-38
42.0168 -181.19745 1435 1.2171266e-38
39.500549 -181.70253 1439 1.1803204e-38
36.944038 -182.08133 1442 1.1803204e-38
34.376549 -182.46014 1445 1.18954e-38
31.798079 -182.83896 1448 1.18954e-38
29.24889 -183.47031 1453 1.2171264e-38
55.031757 -183.43919 1432 5.2605711e-39
52.264797 -182.9268 1428 4.5233606e-39
42.104641 -184.20779 1438 5.3538359e-39
39.500549 -184.33589 1439 5.3527555e-39
36.892799 -184.46399 1440 5.3520353e-39
34.30518 -184.7202 1442 5.5364265e-39
31.75416 -185.23259 1446 5.8126561e-39
29.22876 -186.00119 1452 6.5498582e-39
55.10862 -186.31961 1434 4.8028272e-39
52.301399 -185.66997 1429 5.906651e-39
49.58202 -185.28018 1426 4.8924977e-39
47.005379 -185.41011 1427 5.7276743e-39
44.456188 -185.66997 1429 4.7135224e-39
42.046078 -186.57948 1436 5.4456728e-39
39.418198 -186.57948 1436 5.5371468e-39
36.86718 -186.96927 1439 5.3520353e-39
34.281391 -187.22913 1441 4.9868527e-39
31.732199 -187.74884 1445 3.8855456e-39
29.20863 -188.52843 1451 1.6717897e-39
54.954899 -188.41679 1430 6.5476862e-39
52.118401 -187.62624 1424 1.2264536e-38
44.487301 -188.41679 1430 9.6830579e-39
42.075359 -189.33911 1437 5.5371468e-39
39.390751 -189.07559 1435 5.3520353e-39
36.790318 -189.20735 1436 4.2528876e-39
34.23381 -189.60263 1439 2.5948068e-39
31.68828 -190.12967 1443 1.2108228e-39
29.168369 -190.92024 1449 5.6545336e-40
54.993328 -191.16728 1431 1.2080144e-38
52.118401 -190.23216 1424 1.2355655e-38
44.39397 -190.63292 1427 9.4983009e-39
41.958241 -191.43446 1433 9.4986694e-39
39.3633 -191.56805 1434 9.035892e-39
36.815941 -191.96883 1437 9.1280876e-39
34.257599 -192.3696 1440 1.097272e-38
31.68828 -192.77037 1443 1.08816e-38
29.148239 -193.43831 1448 1.1895033e-38
54.87804 -193.37976 1428 1.1895031e-38
52.0452 -192.56723 1422 1.1895031e-38
44.425079 -193.37976 1428 8.9451271e-39
42.0168 -194.3277 1435 8.6685402e-39
39.390751 -194.3277 1435 9.6823362e-39
36.790318 -194.46312 1436 8.7603799e-39
34.23381 -194.86937 1439 1.0327706e-38
31.64436 -195.14021 1441 1.0327706e-38
29.128109 -195.95274 1447 1.1342934e-38
54.91647 -196.13025 1429 1.1802117e-38
52.0452 -195.16949 1422 1.0419181e-38
44.331749 -195.58125 1425 9.775608e-39
41.899681 -196.40474 1431 8.9451271e-39
39.308399 -196.54199 1432 8.8525755e-39
36.790318 -197.091 1436 8.7596596e-39
34.23381 -197.50275 1439 1.0326985e-38
31.6224 -197.64 1440 1.0326985e-38
29.107979 -198.4635 1446 1.1526605e-38
54.839607 -198.46716 1427 1.0327707e-38
52.008598 -197.63268 1421 8.57599e-39
46.840679 -197.77176 1422 1.1619521e-38
44.39397 -198.46716 1427 9.775608e-39
41.928959 -199.16255 1432 9.1298827e-39
39.33585 -199.30164 1433 1.0696488e-38
36.739079 -199.44072 1434 1.1802836e-38
34.18623 -199.85796 1437 1.1617724e-38
31.600439 -200.13612 1439 1.1894311e-38
29.087849 -200.9706 1445 1.16188e-38
54.87804 -201.21948 1428 1.1711362e-38
52.081799 -200.51492 1423 7.8391481e-39
44.331749 -200.79675 1425 1.0512817e-38
41.928959 -201.78311 1432 9.7752521e-39
39.33585 -201.92403 1433 7.9313395e-39
36.764698 -202.20584 1435 1.1618444e-38
34.18623 -202.48767 1437 1.1617724e-38
31.600439 -202.76949 1439 1.170992e-38
54.87804 -203.83272 1428 1.1158905e-38
52.191601 -203.54724 1426 8.4848748e-39
49.512478 -203.26175 1424 1.0236592e-38
44.456188 -203.97545 1429 9.5908608e-39
42.0168 -204.83189 1435 1.0051843e-38
39.33585 -204.54642 1433 7.9313395e-39
36.713459 -204.54642 1433 1.1526605e-38
34.138649 -204.83189 1435 1.1525884e-38
31.556519 -205.11737 1437 1.1525884e-38
29.04759 -205.97382 1443 1.161808e-38
44.425079 -206.44595 1428 8.8533e-39
41.958241 -207.16881 1433 1.1342579e-38
39.308399 -207.02423 1432 1.1250382e-38
36.713459 -207.16881 1433 1.1250018e-38
34.114861 -207.31337 1434 1.161808e-38
31.556519 -207.74709 1437 1.1525884e-38
39.253498 -209.35199 1430 1.1341858e-38
36.66222 -209.4984 1431 1.1433333e-38
34.091068 -209.7912 1433 1.1617724e-38
31.534559 -210.23039 1436 1.1525529e-38
39.226048 -211.82066 1429 1.1341139e-38
36.66222 -212.11713 1431 1.1341137e-38
34.114861 -212.56181 1434 1.1525529e-38
31.57848 -213.15474 1438 1.1525529e-38
39.17115 -214.13562 1427 1.1617724e-38
36.610981 -214.43573 1429 1.1525529e-38
34.091068 -215.03598 1433 1.1156746e-38
31.534559 -215.48616 1436 1.1525529e-38
59.978249 -216.44325 1425 8.8518553e-39
57.330238 -216.29135 1424 9.0362465e-39
44.456188 -217.05081 1429 8.9440509e-39
41.841118 -217.05081 1429 8.5752684e-39
39.17115 -216.74702 1427 8.2072075e-39
36.610981 -217.05081 1429 1.1249663e-38
34.06728 -217.50647 1432 1.1249662e-38
31.5126 -217.96214 1435 1.1249662e-38
62.54208 -218.89728 1424 8.6685402e-39
59.89407 -218.74356 1423 9.2209937e-39
57.249718 -218.58983 1422 1.0050754e-38
54.87804 -219.51216 1428 9.3121103e-39
44.425079 -219.51216 1428 1.1987951e-38
41.81184 -219.51216 1428 2.9567538e-39
39.1437 -219.20471 1426 1.1526617e-38
36.534119 -219.20471 1426 1.1434782e-38
33.995911 -219.66588 1429 1.1527333e-38
31.44672 -220.12703 1432 1.1434778e-38
28.946939 -221.04936 1438 1.1158187e-38
62.498158 -221.34764 1423 1.2078704e-38
59.851978 -221.19209 1422 1.161809e-38
57.249718 -221.19209 1422 1.16188e-38
41.723999 -221.65875 1425 3.3284328e-39
39.116249 -221.65875 1425 2.037694e-39
36.534119 -221.8143 1426 1.9415284e-39
33.972118 -222.1254 1428 3.2322561e-39
31.4028 -222.43649 1430 3.1407821e-39
28.886549 -223.21425 1435 5.6297082e-39
65.102249 -223.95174 1423 1.0143669e-38
62.41032 -223.63698 1421 1.226417e-38
59.809891 -223.63698 1421 1.1802836e-38
57.249718 -223.79436 1422 4.4279154e-39
54.724319 -224.10912 1424 7.1937745e-39
52.191601 -224.42387 1426 9.8634428e-39
41.694717 -224.10912 1424 3.508508e-39
33.94833 -224.58125 1427 4.5190404e-39
31.38084 -224.89601 1429 4.1542236e-39
28.866419 -225.68292 1434 1.6732457e-39
65.147995 -226.71504 1424 8.4132278e-40
62.454239 -226.39662 1422 3.8503058e-40
59.809891 -226.23741 1421 4.7722621e-40
57.249718 -226.39662 1422 1.9505528e-39
54.724319 -226.71504 1424 6.9222519e-39
52.008598 -226.23741 1421 9.5864874e-39
28.846289 -228.14792 1433 6.6054267e-40
65.102249 -229.15991 1423 1.5817703e-39
62.366398 -228.67679 1420 2.1363902e-39
59.725708 -228.51576 1419 1.1229628e-39
57.08868 -228.35472 1418 7.5345857e-40
54.570599 -228.67679 1420 1.1200719e-39
28.846289 -230.77031 1433 6.6089439e-40
65.147995 -231.92688 1424 1.3005031e-39
62.454239 -231.60114 1422 6.587392e-40
59.809891 -231.43826 1421 2.9140282e-40
57.128941 -231.11252 1419 5.679813e-40
54.609028 -231.43826 1421 1.6743261e-39
28.826159 -233.22983 1432 1.0289679e-39
67.753922 -234.53279 1424 1.3890847e-39
65.056496 -234.2034 1422 1.2054264e-39
62.322479 -233.70929 1419 1.3923231e-39
59.725708 -233.70929 1419 7.5055367e-40
57.08868 -233.5446 1418 7.5235014e-40
28.826159 -235.8504 1432 1.2111885e-39
67.706337 -236.97218 1423 1.1342939e-38
65.01075 -236.63913 1421 1.1895756e-38
62.366398 -236.4726 1420 1.1987595e-38
59.767799 -236.4726 1420 1.2172338e-38
57.128941 -236.30606 1419 1.2171987e-38
28.826159 -238.47096 1432 1.1894677e-38
26.443499 -240.63585 1445 1.1802837e-38
80.670059 -239.40791 1422 3.0417103e-39
78.287399 -240.08136 1426 3.2261016e-39
67.753922 -239.74463 1424 9.9578343e-39
64.964996 -239.0712 1420 1.0511731e-38
62.278561 -238.73448 1418 1.0143669e-38
28.866419 -241.42824 1434 1.0695768e-38
82.920959 -240.98903 1416 3.2261016e-39
75.200188 -241.15923 1417 3.1339059e-39
73.221962 -243.20151 1429 3.0417103e-39
70.508072 -242.86113 1427 4.7930699e-39
67.801498 -242.52075 1425 5.3462437e-39
64.964996 -241.6698 1420 5.8994175e-39
28.946939 -244.73322 1438 5.1615007e-39
