# .PCD v0.7 - Point Cloud Data file format
VERSION 0.7
FIELDS x y z rgb
SIZE 4 4 4 4
TYPE F F F F
COUNT 1 1 1 1
WIDTH 1213
HEIGHT 1
VIEWPOINT 0 0 0 1 0 0 0
POINTS 1213
DATA ascii
41.548321 -225.91899 1419 2.6801571e-39
67.849075 -229.64304 1426 1.2122661e-39
65.01075 -228.83783 1421 1.8587173e-39
62.366398 -228.67679 1420 1.8598033e-39
59.68362 -228.35472 1418 9.3892602e-40
57.08868 -228.35472 1418 1.0304e-39
54.532169 -228.51576 1419 1.1200705e-39
46.54422 -227.54951 1413 2.7770625e-39
44.113979 -228.35472 1418 1.7657958e-39
41.489758 -228.19368 1417 3.1465288e-39
38.979 -228.67679 1420 4.2485436e-39
67.801498 -232.08975 1425 1.1193376e-39
65.056496 -231.60114 1422 3.8321589e-40
62.454239 -231.60114 1422 4.7470247e-40
59.809891 -231.43826 1421 1.9775965e-40
57.128941 -231.11252 1419 3.8250544e-40
54.570599 -231.27539 1420 1.5817689e-39
49.095238 -229.97244 1412 8.4383951e-40
44.051758 -230.62392 1416 1.3055379e-39
41.489758 -230.78679 1417 2.0391429e-39
81.634468 -237.0033 1439 3.0413474e-39
70.755119 -235.8504 1432 1.4794755e-39
67.706337 -234.3681 1423 4.7181719e-40
65.01075 -234.0387 1421 1.9594777e-40
62.366398 -233.87399 1420 1.7614602e-39
59.725708 -233.70929 1419 9.3351561e-40
57.08868 -233.5446 1418 6.5800492e-40
54.49374 -233.5446 1418 8.4311644e-40
51.679199 -232.5564 1412 8.4276051e-40
49.095238 -232.5564 1412 1.0278608e-39
46.47834 -232.39169 1411 2.2260397e-39
44.051758 -233.21519 1416 1.485595e-39
41.548321 -233.70929 1419 9.3459041e-40
81.29409 -238.63748 1433 3.0417103e-39
70.656296 -238.13789 1430 1.1526239e-38
67.753922 -237.13872 1424 1.1435847e-38
65.102249 -236.97218 1423 1.180391e-38
62.454239 -236.80565 1422 1.1711716e-38
59.809891 -236.63913 1421 1.1895753e-38
57.08868 -236.13954 1418 1.1897545e-38
54.455311 -235.97301 1417 1.1806071e-38
51.8256 -235.80647 1416 1.2171987e-38
49.199551 -235.63994 1415 1.2264184e-38
46.6101 -235.63994 1415 1.2539692e-38
44.08287 -235.97301 1417 1.2263459e-38
75.996239 -241.09152 1432 2.857319e-39
70.606888 -240.58644 1429 8.9433166e-39
67.706337 -239.57628 1423 1.0880148e-38
65.01075 -239.23956 1421 1.0418812e-38
62.366398 -239.0712 1420 1.032734e-38
59.68362 -238.73448 1418 1.1249296e-38
57.00816 -238.39775 1416 1.0051475e-38
54.378448 -238.2294 1415 1.0973431e-38
51.788998 -238.2294 1415 1.0512453e-38
49.269089 -238.56612 1417 1.1065627e-38
46.70892 -238.73448 1418 1.0420977e-38
73.375679 -243.71208 1432 3.3182972e-39
70.508072 -242.86113 1427 4.516483e-39
67.706337 -242.18036 1423 5.4384393e-39
65.01075 -241.83998 1421 5.6228306e-39
62.41032 -241.83998 1421 5.9916159e-39
59.725708 -241.4996 1419 6.54551e-39
57.00816 -240.98903 1416 6.54551e-39
54.416878 -240.98903 1416 6.4533143e-39
51.788998 -240.81885 1415 7.8358929e-39
49.269089 -241.15923 1417 6.545154e-39
46.741859 -241.4996 1419 7.3749147e-39
-121.48272 -280.92877 1383 1.1963782e-39
-127.368 -282.75696 1392 7.3684197e-40
-131.12865 -285.39764 1405 6.4536661e-40
-121.65839 -283.8696 1385 1.1041826e-39
-132.0345 -295.75726 1443 5.5317098e-40
-130.94199 -287.55887 1403 5.5317098e-40
-122.18544 -287.6449 1391 1.1041826e-39
-128.76611 -296.95044 1436 1.1963782e-39
-131.394 -296.95044 1436 7.3684197e-40
-129.54204 -287.02451 1388 5.5317098e-40
-120.78 -286.85251 1375 1.7463094e-39
-120.86784 -289.57919 1376 8.2759566e-40
-194.20874 -365.11246 1415 5.5316537e-40
-140.40675 -441.64304 1395 4.6097815e-40
-141.34004 -448.81665 1355 4.6097815e-40
62.25111 -154.27449 1479 2.3045082e-39
59.625057 -154.48311 1481 2.2123126e-39
56.914829 -154.48311 1481 2.0286444e-39
54.167999 -154.3788 1480 1.6598647e-39
68.030251 -157.83017 1487 2.9502349e-39
64.69416 -156.34422 1473 3.4112131e-39
61.78812 -155.81352 1468 2.0286444e-39
59.02116 -155.60124 1466 1.8442531e-39
56.29995 -155.4951 1465 1.6598647e-39
53.582397 -155.38896 1464 1.6587871e-39
50.868507 -155.28282 1463 1.5673117e-39
48.224159 -155.38896 1464 1.5673117e-39
67.481247 -159.25575 1475 1.4751276e-38
64.518478 -158.60793 1469 1.6410797e-38
61.577667 -157.96011 1463 1.5489929e-38
58.860119 -157.85214 1462 1.595055e-38
56.146229 -157.74417 1461 1.622714e-38
53.436001 -157.6362 1460 1.6042749e-38
50.764198 -157.6362 1460 1.6318978e-38
48.05946 -157.52823 1459 1.6226783e-38
45.45171 -157.74417 1461 1.6320057e-38
67.801498 -162.7236 1482 2.857682e-39
64.69416 -161.7354 1473 1.484384e-38
61.746029 -161.0766 1467 1.373858e-38
58.940639 -160.74719 1464 1.4107362e-38
56.184658 -160.5276 1462 1.4291753e-38
53.472599 -160.4178 1461 1.4292474e-38
50.798969 -160.4178 1461 1.4753452e-38
48.12534 -160.4178 1461 1.4937843e-38
68.670746 -167.55663 1501 5.5313552e-39
65.001602 -165.2124 1480 1.6041304e-38
61.956478 -164.31935 1472 1.4659457e-38
58.9809 -163.53795 1465 1.4844927e-38
56.184658 -163.20306 1462 1.5029318e-38
53.436001 -162.9798 1460 1.5305905e-38
50.729427 -162.86816 1459 1.5859079e-38
48.05946 -162.86816 1459 1.6227862e-38
68.762245 -170.53038 1503 3.5023311e-39
59.02116 -166.33235 1466 1.0050753e-38
56.146229 -165.76506 1461 1.0235866e-38
53.399399 -165.53813 1459 1.0696844e-38
50.69466 -165.42468 1458 1.0881235e-38
71.798218 -173.97261 1509 3.3186629e-39
58.9809 -168.89984 1465 1.2540035e-38
56.1078 -168.32339 1460 1.2540757e-38
53.326199 -167.97752 1457 1.2817344e-38
50.590347 -167.74695 1455 1.2263814e-38
74.460869 -176.49983 1507 3.9633093e-39
70.513557 -173.57184 1482 2.6740166e-39
67.206749 -172.04927 1469 2.1212057e-39
64.254959 -171.34656 1463 1.0880515e-38
61.409309 -170.87808 1459 1.7334929e-38
58.618557 -170.52672 1456 1.816541e-38
55.838787 -170.17535 1453 1.9363598e-38
53.179798 -170.17535 1453 1.9179206e-38
50.486038 -170.05824 1452 1.9455795e-38
47.82888 -170.05824 1452 1.954799e-38
73.571487 -177.11655 1489 2.580742e-39
69.990181 -174.97545 1471 7.2827191e-39
66.794998 -173.66699 1460 1.9823491e-38
63.815758 -172.83435 1453 2.0192274e-38
61.030499 -172.47749 1450 1.954727e-38
58.336739 -172.35855 1449 1.8533838e-38
55.608208 -172.12065 1447 1.871823e-38
52.960197 -172.12065 1447 1.9179208e-38
50.27742 -172.00169 1446 1.9271403e-38
47.697121 -172.23959 1448 1.9271406e-38
45.047279 -172.23959 1448 1.9179211e-38
77.26992 -182.13623 1508 3.7796383e-39
69.65712 -176.82191 1464 1.7978857e-38
66.5205 -175.61412 1454 1.6411897e-38
63.596157 -174.88943 1448 1.6412619e-38
60.777958 -174.40631 1444 1.7057988e-38
58.135437 -174.40631 1444 1.7887749e-38
55.454491 -174.28554 1443 1.7518966e-38
52.6674 -173.80241 1439 1.7426771e-38
49.99926 -173.68164 1438 1.7427491e-38
47.433598 -173.9232 1440 1.7703357e-38
44.92284 -174.40631 1444 1.7335298e-38
77.116196 -184.52805 1505 3.3190175e-39
69.466797 -179.01059 1460 1.3737855e-38
66.383247 -177.9071 1451 1.4014811e-38
63.50832 -177.29405 1446 1.447579e-38
60.73587 -176.92622 1443 1.447579e-38
58.01466 -176.681 1441 1.309321e-38
55.339199 -176.5584 1440 1.5028962e-38
44.673958 -176.06796 1436 1.5306271e-38
42.280319 -177.04884 1444 1.5305915e-38
39.637798 -177.04884 1444 1.4660546e-38
69.276482 -181.18463 1456 1.1709551e-38
66.291748 -180.31355 1449 1.2724428e-38
63.464397 -179.8158 1445 1.2816623e-38
60.693779 -179.44247 1442 1.3001015e-38
44.580627 -178.32251 1433 1.3093575e-38
42.1632 -179.1936 1440 1.2909183e-38
39.582901 -179.44247 1442 1.2816989e-38
69.133736 -183.47031 1453 1.1157101e-38
66.246002 -182.83896 1448 1.226489e-38
63.464397 -182.46014 1445 1.0605369e-38
60.693779 -182.08133 1442 2.3052425e-39
42.046078 -181.32372 1436 1.2171266e-38
39.500549 -181.70253 1439 1.2354937e-38
68.94342 -185.6169 1449 4.888532e-39
66.154495 -185.23259 1446 3.9723434e-39
63.332638 -184.7202 1442 6.5040988e-40
60.6096 -184.46399 1440 4.1527466e-39
55.147049 -183.8235 1435 5.2580418e-39
42.0168 -183.8235 1435 5.1694447e-39
39.473099 -184.20779 1438 5.2598537e-39
68.800682 -187.87877 1446 5.1665524e-39
65.971497 -187.35905 1442 4.5273025e-39
63.200878 -186.96927 1439 5.2601914e-39
60.48333 -186.70941 1437 6.2718182e-39
57.813358 -186.57948 1436 6.9171876e-39
55.147049 -186.44954 1435 6.0931876e-39
41.958241 -186.18968 1433 5.3538373e-39
39.445648 -186.70941 1437 5.4449526e-39
68.753098 -190.3932 1445 1.0971623e-38
65.834251 -189.60263 1439 1.16188e-38
63.069118 -189.20735 1436 1.1896108e-38
57.692577 -188.81207 1433 6.1799785e-39
55.07019 -188.81207 1433 7.3752818e-39
44.487301 -188.41679 1430 9.7741801e-39
42.0168 -189.07559 1435 5.5371482e-39
39.418198 -189.20735 1436 5.4449526e-39
68.848259 -193.30473 1447 1.1803192e-38
65.925751 -192.50319 1441 1.2172694e-38
63.113037 -191.96883 1437 9.5912168e-39
60.314968 -191.43446 1433 4.8877991e-39
57.692577 -191.43446 1433 1.1524085e-38
55.031757 -191.30087 1432 1.2171608e-38
41.958241 -191.43446 1433 9.7749004e-39
39.418198 -191.83524 1436 8.8515035e-39
68.705521 -195.54648 1444 1.1434043e-38
65.834251 -194.86937 1439 1.1250372e-38
62.981277 -194.19228 1434 1.2171254e-38
60.272881 -193.92143 1432 1.1986863e-38
57.612061 -193.78601 1431 1.1710276e-38
54.954899 -193.65059 1430 1.2079058e-38
44.39397 -193.24434 1427 8.9447712e-39
41.987518 -194.19228 1434 8.57599e-39
39.418198 -194.46312 1436 9.6823362e-39
68.610359 -197.91449 1442 1.1526239e-38
65.742752 -197.22824 1437 1.1894666e-38
62.937359 -196.67924 1433 1.2079058e-38
60.272881 -196.54199 1432 1.1710996e-38
57.652317 -196.54199 1432 1.161808e-38
54.954899 -196.2675 1430 1.2078702e-38
41.870399 -196.2675 1430 9.221358e-39
39.3633 -196.8165 1434 8.9447712e-39
80.825607 -211.81883 1523 2.9491573e-39
68.515198 -200.27519 1440 1.1157101e-38
65.651245 -199.5798 1435 1.1434409e-38
62.849518 -199.02348 1431 1.1250018e-38
60.14661 -198.74532 1429 1.1066347e-38
57.53154 -198.74532 1429 1.0973795e-38
54.91647 -198.74532 1429 1.0419901e-38
44.331749 -198.189 1425 9.8674477e-39
41.899681 -199.02348 1431 8.9454928e-39
39.3633 -199.44072 1434 1.0420257e-38
36.739079 -199.44072 1434 1.1895387e-38
68.562782 -203.0513 1441 9.2224342e-39
65.651245 -202.20584 1435 1.1619165e-38
62.89344 -201.78311 1432 8.1164496e-39
60.188698 -201.5013 1430 7.7476671e-39
57.53154 -201.36038 1429 1.0513179e-38
55.031757 -201.78311 1432 1.2080144e-38
52.228199 -201.07857 1427 7.9313409e-39
44.331749 -200.79675 1425 1.023623e-38
41.870399 -201.5013 1430 9.4068311e-39
39.280949 -201.64221 1431 8.1157308e-39
68.562782 -205.68834 1441 8.8536517e-39
65.696999 -204.97464 1436 9.9599993e-39
62.805599 -204.11819 1430 9.5001043e-39
60.14661 -203.97545 1429 1.0237669e-38
57.451019 -203.68997 1427 1.0052921e-38
55.031757 -204.40367 1432 1.1251464e-38
52.301399 -203.97545 1429 8.6692661e-39
44.456188 -203.97545 1429 9.406471e-39
41.958241 -204.54642 1433 1.0236234e-38
39.280949 -204.26094 1431 7.8391439e-39
68.515198 -208.1808 1440 1.078976e-38
65.651245 -207.45795 1435 9.8678037e-39
62.849518 -206.87967 1431 1.0882319e-38
60.188698 -206.73509 1430 7.5639961e-39
57.53154 -206.59053 1429 7.5647178e-39
52.484398 -207.31337 1434 1.0145119e-38
44.425079 -206.44595 1428 8.8533e-39
41.928959 -207.02423 1432 1.1619169e-38
39.253498 -206.73509 1430 1.1158188e-38
68.420036 -210.52319 1438 8.9451271e-39
65.651245 -210.084 1435 1.0328782e-38
62.849518 -209.4984 1431 9.7752521e-39
60.14661 -209.2056 1429 7.7476671e-39
57.451019 -208.9128 1427 7.6558372e-39
68.324875 -212.85828 1436 1.0972711e-38
65.605499 -212.56181 1434 1.1525529e-38
62.937359 -212.41359 1433 1.1802837e-38
60.188698 -211.9689 1430 1.1157468e-38
57.53154 -211.82066 1429 1.1158191e-38
68.182137 -215.03598 1433 1.0326265e-38
65.422501 -214.5858 1430 8.3908771e-39
62.717758 -214.28568 1428 8.6674654e-39
60.02034 -213.98555 1426 9.2213595e-39
57.370499 -213.83549 1425 8.3912429e-39
39.253498 -214.5858 1430 1.170992e-38
36.6366 -214.5858 1430 1.1341493e-38
68.13456 -217.50647 1432 8.8518553e-39
65.331001 -216.89891 1428 9.4972247e-39
62.67384 -216.74702 1427 1.0695768e-38
59.936157 -216.29135 1424 9.1284436e-39
57.330238 -216.29135 1424 9.2206392e-39
44.487301 -217.2027 1430 9.0369668e-39
39.198601 -216.89891 1428 8.1157308e-39
36.585358 -216.89891 1428 1.1065991e-38
68.086975 -219.97331 1431 8.7600156e-39
65.239502 -219.20471 1426 9.8663631e-39
62.498158 -218.74356 1423 8.3915974e-39
59.809891 -218.43611 1421 9.221358e-39
57.169197 -218.28239 1420 1.0235146e-38
54.801178 -219.20471 1426 8.9433278e-39
52.264797 -219.51216 1428 8.8518553e-39
44.362858 -219.20471 1426 1.1803556e-38
41.81184 -219.51216 1428 2.6812641e-39
39.1437 -219.20471 1426 1.1711716e-38
36.585358 -219.51216 1428 1.1803192e-38
68.13456 -222.74759 1432 1.1250016e-38
65.239502 -221.8143 1426 1.1066347e-38
62.54208 -221.50319 1424 1.1619165e-38
59.809891 -221.03654 1421 1.1619521e-38
57.169197 -220.881 1420 1.1710996e-38
54.801178 -221.8143 1426 1.2171254e-38
52.264797 -222.1254 1428 1.1155277e-38
44.176201 -220.881 1420 1.6710835e-39
41.694717 -221.50319 1424 2.8681805e-39
39.1437 -221.8143 1426 1.5788878e-39
36.585358 -222.1254 1428 1.2072256e-39
67.991821 -224.89601 1429 9.774522e-39
65.147995 -224.10912 1424 1.0788319e-38
62.454239 -223.79436 1422 1.2079791e-38
59.767799 -223.4796 1420 1.1065995e-38
57.169197 -223.4796 1420 4.520111e-39
54.68589 -223.95174 1423 7.5629129e-39
52.118401 -224.10912 1424 9.5872105e-39
46.741859 -223.32222 1419 5.5378741e-39
44.145088 -223.32222 1419 1.025714e-39
41.66544 -223.95174 1423 3.1418905e-39
39.088799 -224.10912 1424 3.5099191e-39
36.534119 -224.42387 1426 4.6105354e-39
33.972118 -224.73863 1428 4.3346506e-39
67.89666 -227.19267 1427 6.4598332e-39
65.102249 -226.55583 1423 7.5019915e-40
62.454239 -226.39662 1422 5.6870157e-40
59.809891 -226.23741 1421 6.6161746e-40
57.209457 -226.23741 1421 2.042754e-39
54.68589 -226.55583 1423 6.0910423e-39
52.081799 -226.55583 1423 1.0323332e-38
44.113979 -225.75978 1418 2.6837836e-39
41.636158 -226.39662 1422 4.3396798e-39
39.061348 -226.55583 1423 6.1814134e-39
36.508499 -226.87425 1425 3.4231045e-39
33.94833 -227.19267 1427 2.5872426e-39
67.753922 -229.32095 1424 1.1200705e-39
65.056496 -228.99887 1422 1.5817689e-39
62.366398 -228.67679 1420 2.1363902e-39
59.725708 -228.51576 1419 1.3999042e-39
57.128941 -228.51576 1419 9.3712676e-40
54.570599 -228.67679 1420 1.672524e-39
51.862198 -228.19368 1417 9.034778e-39
44.145088 -228.51576 1419 1.582129e-39
41.60688 -228.83783 1421 3.2365636e-39
39.033897 -228.99887 1422 3.5153029e-39
36.431641 -228.99887 1422 1.7622001e-39
33.900749 -229.48199 1425 2.7777519e-39
31.38084 -230.12616 1429 1.6732302e-39
67.801498 -232.08975 1425 2.0369863e-39
65.056496 -231.60114 1422 1.1186299e-39
62.41032 -231.43826 1421 1.0591995e-40
59.767799 -231.27539 1420 2.8995528e-40
57.169197 -231.27539 1420 3.832257e-40
54.570599 -231.27539 1420 1.305182e-39
41.577599 -231.27539 1420 1.6718037e-39
39.061348 -231.76401 1423 1.7625532e-39
36.508499 -232.08975 1425 1.5778088e-39
33.94833 -232.41548 1427 1.2093822e-39
31.38084 -232.74123 1429 2.3160955e-39
67.801498 -234.69749 1425 1.5727684e-39
65.056496 -234.2034 1422 4.70741e-40
62.366398 -233.87399 1420 9.3495895e-40
59.725708 -233.70929 1419 6.5764899e-40
57.08868 -233.5446 1418 5.6617363e-40
54.49374 -233.5446 1418 9.367414e-40
44.08287 -233.3799 1417 5.6617643e-40
41.548321 -233.70929 1419 9.3423868e-40
39.033897 -234.2034 1422 1.024635e-39
36.508499 -234.69749 1425 1.1987947e-38
33.924538 -234.8622 1426 1.3015779e-39
31.358879 -235.19159 1428 9.3495895e-40
67.801498 -237.30525 1425 1.1618435e-38
65.102249 -236.97218 1423 1.1802826e-38
62.41032 -236.63913 1421 1.1895387e-38
59.725708 -236.30606 1419 1.1987583e-38
57.08868 -236.13954 1418 1.1988303e-38
54.570599 -236.4726 1420 1.2172694e-38
51.8988 -236.13954 1418 1.2172694e-38
49.30386 -236.13954 1418 1.2449281e-38
46.70892 -236.13954 1418 1.2264534e-38
44.113979 -236.13954 1418 1.2172694e-38
41.577599 -236.4726 1420 1.171136e-38
39.006451 -236.63913 1421 1.1987583e-38
36.508499 -237.30525 1425 1.0881235e-38
33.94833 -237.63831 1427 1.1895387e-38
80.726791 -239.57628 1423 3.0417103e-39
78.397202 -240.41808 1428 3.1339059e-39
67.801498 -239.91299 1425 1.041917e-38
65.147995 -239.74463 1424 1.1156735e-38
62.41032 -239.23956 1421 1.0696478e-38
59.725708 -238.90283 1419 1.0419891e-38
56.967899 -238.2294 1415 1.0051473e-38
54.416878 -238.39775 1416 1.0051473e-38
51.8256 -238.39775 1416 1.0144389e-38
49.338631 -238.90283 1419 1.0605367e-38
46.741859 -238.90283 1419 1.0420977e-38
44.176201 -239.0712 1420 1.1066347e-38
41.548321 -238.90283 1419 1.1065627e-38
38.979 -239.0712 1420 1.0328062e-38
36.48288 -239.74463 1424 6.1756513e-39
33.94833 -240.24971 1427 1.0696844e-38
83.155197 -241.6698 1420 3.0417103e-39
75.677818 -242.69093 1426 3.0417103e-39
67.753922 -242.35056 1424 5.2540481e-39
65.147995 -242.35056 1424 5.9916131e-39
62.454239 -242.01018 1422 5.9916131e-39
59.767799 -241.6698 1420 6.4525941e-39
57.00816 -240.98903 1416 6.9135722e-39
54.455311 -241.15923 1417 6.54551e-39
51.862198 -241.15923 1417 6.6377056e-39
49.30386 -241.32942 1418 6.8220969e-39
46.741859 -241.4996 1419 6.9142925e-39
44.176201 -241.6698 1420 6.729181e-39
41.60688 -241.83998 1421 6.6369853e-39
39.033897 -242.01018 1422 6.2678469e-39
36.48288 -242.35056 1424 6.5444338e-39
33.94833 -242.86113 1427 2.7647689e-39
64.518478 -158.60793 1469 1.6318601e-38
61.577667 -157.96011 1463 1.5674321e-38
58.819859 -157.74417 1461 1.5675041e-38
72.131279 -174.77963 1516 3.871471e-39
75.004379 -177.78816 1518 3.5948841e-39
64.298882 -171.46368 1464 9.774522e-39
77.833557 -180.68504 1519 4.2402507e-39
73.571487 -177.11655 1489 3.0417103e-39
70.037758 -175.09439 1472 7.6518547e-39
66.886497 -173.90489 1462 1.982349e-38
63.903599 -173.07225 1455 2.0008603e-38
61.07259 -172.59645 1451 1.9271402e-38
58.296478 -172.23959 1448 1.8533838e-38
55.531349 -171.88275 1445 1.8810425e-38
52.886997 -171.88275 1445 1.8902621e-38
76.860001 -181.17 1500 3.5034087e-39
73.126801 -178.75439 1480 3.1353479e-39
69.609535 -176.70114 1463 1.8163603e-38
66.566246 -175.73489 1455 1.6320777e-38
63.596157 -174.88943 1448 1.6504813e-38
60.820049 -174.5271 1445 1.7150184e-38
58.05492 -174.16475 1442 1.8164336e-38
55.339199 -173.9232 1440 1.7611162e-38
52.630798 -173.68164 1438 1.7703357e-38
49.964489 -173.56085 1437 1.7334219e-38
47.400658 -173.80241 1439 1.7610806e-38
76.808762 -183.79239 1499 3.5034087e-39
72.830338 -180.72714 1474 1.2999924e-38
69.324059 -178.64276 1457 1.3737855e-38
66.337502 -177.7845 1450 1.4015166e-38
63.50832 -177.29405 1446 1.4199922e-38
60.73587 -176.92622 1443 1.4384313e-38
57.934139 -176.43579 1439 1.309393e-38
55.185478 -176.06796 1436 1.46609e-38
52.374599 -175.45491 1431 1.4937489e-38
49.686329 -175.20969 1429 1.5029684e-38
47.104198 -175.33229 1430 1.5490662e-38
44.61174 -175.82274 1434 1.5306271e-38
76.808762 -186.53555 1499 3.1346262e-39
72.682106 -183.05124 1471 1.2999927e-38
69.133736 -180.81131 1453 1.1801747e-38
66.154495 -179.94023 1446 1.2447841e-38
63.332638 -179.44247 1442 1.2817344e-38
60.651688 -179.31804 1441 1.2909539e-38
57.853619 -178.82028 1437 1.2817344e-38
55.10862 -178.44696 1434 1.2817344e-38
52.228199 -177.57588 1427 1.2909183e-38
49.547249 -177.327 1425 1.300138e-38
47.005379 -177.57588 1427 1.2538971e-38
44.549519 -178.19807 1432 1.300138e-38
76.91124 -189.53127 1501 2.3977814e-39
72.632698 -185.6169 1470 1.18943e-38
69.038582 -183.21777 1451 1.0972711e-38
66.108749 -182.46014 1445 1.2172338e-38
63.332638 -182.08133 1442 1.0420977e-38
60.6096 -181.8288 1440 2.9516909e-39
57.813358 -181.32372 1436 3.3211937e-39
55.07019 -180.9449 1433 1.3002099e-38
52.191601 -180.06102 1426 1.2631522e-38
49.512478 -179.80847 1424 1.2263105e-38
46.906559 -179.80847 1424 4.8924977e-39
44.425079 -180.31355 1428 1.2908832e-38
76.808762 -192.0219 1499 1.5673145e-39
72.484467 -187.9227 1467 6.2696546e-39
68.94342 -185.6169 1449 5.256946e-39
66.062996 -184.97639 1444 4.4340306e-39
63.332638 -184.7202 1442 8.3480394e-40
60.6096 -184.46399 1440 4.6133702e-39
57.813358 -183.9516 1436 2.6768991e-39
55.07019 -183.56729 1433 4.52552e-39
52.191601 -182.67059 1426 4.4315209e-39
49.512478 -182.4144 1424 4.1592528e-39
46.972439 -182.67059 1426 4.6216701e-39
76.91124 -195.02493 1501 1.8428224e-39
72.435059 -190.47737 1466 5.6242851e-39
68.94342 -188.26857 1449 5.5353377e-39
66.062996 -187.61891 1444 4.2496394e-39
63.37656 -187.48898 1443 5.9977564e-39
60.567509 -186.96927 1439 6.086708e-39
57.813358 -186.57948 1436 7.3785273e-39
55.07019 -186.18968 1433 5.446756e-39
52.228199 -185.41011 1427 4.8968193e-39
49.512478 -185.02031 1424 4.9850534e-39
46.939499 -185.15025 1425 5.452151e-39
44.39397 -185.41011 1427 4.5301947e-39
76.450081 -196.58592 1492 1.9350082e-39
72.237419 -192.63312 1462 1.9353725e-39
68.848259 -190.65672 1447 1.0971266e-38
66.01725 -190.12967 1443 1.1803192e-38
63.244801 -189.73439 1440 1.2079058e-38
60.525417 -189.47087 1438 1.0881956e-38
57.773098 -189.07559 1435 6.4562094e-39
55.031757 -188.68031 1432 7.3781657e-39
52.191601 -187.88976 1426 1.2264536e-38
49.512478 -187.62624 1424 1.2354214e-38
46.939499 -187.758 1425 5.3534758e-39
44.425079 -188.15327 1428 9.4053948e-39
76.193878 -198.64833 1487 2.0272038e-39
72.237419 -195.30858 1462 1.0418092e-38
68.848259 -193.30473 1447 1.1803192e-38
65.971497 -192.63678 1442 1.2171974e-38
63.15696 -192.10242 1438 9.1302386e-39
60.399147 -191.70164 1435 4.7044925e-39
57.692577 -191.43446 1433 1.1526969e-38
54.91647 -190.9001 1429 1.2539682e-38
52.118401 -190.23216 1424 1.244641e-38
49.44294 -189.96498 1422 1.1248587e-38
46.873619 -190.09857 1423 9.4053948e-39
44.331749 -190.36575 1425 9.6823362e-39
75.988922 -200.82785 1483 2.027201e-39
72.188011 -197.84862 1461 1.0048944e-38
68.753098 -195.6819 1445 1.1433687e-38
65.879997 -195.00479 1440 1.1618079e-38
63.0252 -194.3277 1435 1.2079058e-38
60.314968 -194.05685 1433 1.1987583e-38
57.612061 -193.78601 1431 1.1710996e-38
54.87804 -193.37976 1428 1.1710996e-38
52.0452 -192.56723 1422 1.1802836e-38
49.408169 -192.43182 1421 1.2263814e-38
46.807739 -192.43182 1421 9.4979449e-39
44.30064 -192.83807 1424 8.7603799e-39
76.0914 -203.81625 1485 1.8435328e-39
72.188011 -200.52225 1461 8.3890666e-39
68.705521 -198.189 1444 1.1525163e-38
65.834251 -197.50275 1439 1.1894666e-38
63.069118 -197.091 1436 1.1710996e-38
60.314968 -196.67924 1433 1.1710996e-38
57.652317 -196.54199 1432 1.1710996e-38
54.954899 -196.2675 1430 1.1987583e-38
52.081799 -195.30675 1423 1.0512097e-38
49.408169 -195.03224 1421 8.7603799e-39
44.238419 -195.16949 1422 9.4979449e-39
75.937675 -206.11656 1482 2.2115951e-39
72.138596 -203.05679 1460 1.0233701e-38
68.610359 -200.55336 1442 1.0603928e-38
65.742752 -199.85796 1437 1.1895387e-38
62.981277 -199.44072 1434 1.0605369e-38
60.230789 -199.02348 1431 1.1158542e-38
57.612061 -199.02348 1431 1.1342934e-38
54.993328 -199.02348 1431 1.0328426e-38
52.081799 -197.91084 1423 8.8532958e-39
49.373398 -197.49359 1420 1.08816e-38
46.774799 -197.49359 1420 9.7752521e-39
44.269527 -197.91084 1423 1.1065992e-38
79.498856 -211.08318 1498 2.9491573e-39
75.68148 -208.12407 1477 2.0275682e-39
71.891548 -205.02405 1455 9.3124677e-39
68.562782 -203.0513 1441 9.3142739e-39
65.696999 -202.34676 1436 1.1434773e-38
62.981277 -202.06494 1434 8.1164496e-39
60.230789 -201.64221 1431 7.3788846e-39
57.5718 -201.5013 1430 1.0974514e-38
55.031757 -201.78311 1432 1.1435492e-38
52.154999 -200.79675 1425 8.0238967e-39
44.269527 -200.51492 1423 1.0420623e-38
79.180435 -212.96808 1492 2.9491573e-39
75.630241 -210.68423 1476 1.9357285e-39
71.891548 -207.68669 1455 1.0050033e-38
68.610359 -205.83107 1442 8.8532958e-39
65.651245 -204.83189 1435 1.0144036e-38
62.89344 -204.40367 1432 9.5912224e-39
60.104519 -203.83272 1428 1.0421703e-38
57.451019 -203.68997 1427 1.0237312e-38
54.954899 -204.11819 1430 1.1159626e-38
52.228199 -203.68997 1427 8.1168126e-39
75.578995 -213.24075 1475 2.0279241e-39
71.743317 -209.91563 1452 9.6819719e-39
68.467621 -208.03622 1439 1.0789404e-38
65.605499 -207.31337 1434 1.0144036e-38
62.89344 -207.02423 1432 1.0420983e-38
60.14661 -206.59053 1429 7.4714432e-39
57.49128 -206.44595 1428 7.6569134e-39
79.551926 -219.4536 1499 2.9491573e-39
75.476517 -215.6472 1473 2.1201197e-39
71.743317 -212.5728 1452 8.9444054e-39
68.420036 -210.52319 1438 8.7603799e-39
65.605499 -209.93759 1434 1.0236232e-38
62.805599 -209.35199 1430 9.9596448e-39
60.104519 -209.05919 1428 7.931701e-39
57.410759 -208.7664 1426 7.5636388e-39
75.3228 -217.8981 1470 2.2123154e-39
71.595085 -214.78526 1449 1.0603927e-38
68.277298 -212.71005 1435 1.0973075e-38
65.514 -212.26535 1432 1.1526249e-38
62.805599 -211.9689 1430 1.152697e-38
60.14661 -211.82066 1429 1.1250382e-38
57.49128 -211.67244 1428 1.1158187e-38
79.286575 -224.18964 1494 3.041353e-39
75.117836 -219.98796 1466 2.2115923e-39
71.595085 -217.43694 1449 1.0972709e-38
68.277298 -215.33609 1435 1.014367e-38
65.514 -214.88591 1432 8.2072061e-39
62.717758 -214.28568 1428 8.5759886e-39
60.062428 -214.13562 1427 9.221358e-39
57.370499 -213.83549 1425 8.7603799e-39
79.339645 -227.07555 1495 2.9495147e-39
75.169075 -222.82263 1467 2.2115923e-39
71.545677 -219.93672 1448 8.5756229e-39
68.229721 -217.81026 1434 9.0373227e-39
65.422501 -217.2027 1430 9.4983009e-39
62.717758 -216.89891 1428 1.0604292e-38
60.02034 -216.59514 1426 8.8518553e-39
57.370499 -216.44325 1425 9.0362465e-39
79.127365 -229.19652 1491 3.0417103e-39
75.169075 -225.50723 1467 2.3037879e-39
71.545677 -222.58656 1448 1.0327696e-38
68.182137 -220.28076 1433 8.8529315e-39
65.376747 -219.66588 1429 9.4061052e-39
62.585999 -219.05099 1425 8.8529315e-39
59.89407 -218.74356 1423 9.3139096e-39
57.209457 -218.43611 1421 1.023479e-38
75.066597 -227.88075 1465 2.3959836e-39
71.446861 -224.92529 1446 1.0787595e-38
68.13456 -222.74759 1432 1.1342213e-38
65.331001 -222.1254 1428 1.1157822e-38
62.585999 -221.65875 1425 1.1803556e-38
59.89407 -221.34764 1423 1.1435129e-38
57.249718 -221.19209 1422 1.1710996e-38
78.331322 -232.29288 1476 3.0417103e-39
74.861641 -229.93217 1461 2.3959836e-39
71.29863 -227.09933 1443 9.2206266e-39
68.086975 -225.21077 1431 1.0143669e-38
65.239502 -224.42387 1426 1.032806e-38
62.498158 -223.95174 1423 1.226489e-38
59.809891 -223.63698 1421 1.1619521e-38
57.169197 -223.4796 1420 4.059123e-39
54.647457 -223.79436 1422 7.0090189e-39
78.012901 -234.0387 1470 2.2126839e-39
74.759155 -232.28738 1459 9.6816173e-39
71.199806 -229.4216 1441 1.0787975e-38
67.991821 -227.51109 1429 7.1041292e-39
65.239502 -227.03346 1426 1.1175411e-39
62.54208 -226.71504 1424 4.7542273e-40
59.851978 -226.39662 1422 7.5381029e-40
57.209457 -226.23741 1421 2.0431072e-39
54.609028 -226.23741 1421 6.9211659e-39
77.535271 -235.27943 1461 2.675104e-39
74.656677 -234.63527 1457 2.4914666e-39
71.10099 -231.73656 1439 1.0221113e-39
67.89666 -229.80408 1427 1.3044617e-39
65.147995 -229.32095 1424 1.582129e-39
62.454239 -228.99887 1422 2.2282229e-39
59.767799 -228.67679 1420 1.3991825e-39
57.04842 -228.19368 1417 4.7722621e-40
54.416878 -228.03264 1416 1.3044631e-39
51.642597 -227.22743 1411 9.219172e-39
46.51128 -227.38847 1412 2.4100764e-39
77.800621 -238.76741 1466 2.4910771e-39
74.297997 -236.1615 1450 2.4925414e-39
70.952759 -233.88132 1436 1.9444193e-39
67.944237 -232.57835 1428 1.4863208e-39
65.193748 -232.08975 1425 4.739808e-40
62.54208 -231.92688 1424 6.587392e-40
59.809891 -231.43826 1421 1.9703938e-40
57.169197 -231.27539 1420 4.7434654e-40
54.455311 -230.78679 1417 1.5817703e-39
51.642597 -229.80957 1411 1.1193474e-39
48.990929 -229.48383 1409 6.5837206e-40
46.41246 -229.48383 1409 8.4385072e-40
79.879501 -239.63849 1455 3.0417103e-39
77.26992 -239.80319 1456 2.3063215e-39
73.990555 -237.8268 1444 2.2162951e-39
70.853935 -236.17979 1434 1.3876372e-39
67.89666 -235.0269 1427 1.2983212e-39
65.147995 -234.53279 1424 1.2990541e-39
62.41032 -234.0387 1421 1.022477e-39
59.767799 -233.87399 1420 6.5693152e-40
57.128941 -233.70929 1419 3.8178517e-40
54.378448 -233.05049 1415 8.4348358e-40
51.642597 -232.39169 1411 1.0282168e-39
49.0257 -232.22699 1410 1.0282168e-39
79.550102 -241.30197 1449 3.1335486e-39
76.9515 -241.46849 1450 2.2133902e-39
73.836838 -239.96973 1441 1.1341493e-38
70.804527 -238.63748 1433 1.1066347e-38
67.89666 -237.63831 1427 1.1527685e-38
65.147995 -237.13872 1424 1.180391e-38
62.454239 -236.80565 1422 1.1896108e-38
59.725708 -236.30606 1419 1.1804638e-38
78.946198 -242.10167 1438 3.4104928e-39
76.420799 -242.4384 1440 2.3045082e-39
73.683121 -242.10167 1438 9.6808845e-39
70.755119 -241.09152 1432 9.5894091e-39
67.89666 -240.24971 1427 1.0603204e-38
65.102249 -239.57628 1423 1.0512087e-38
62.366398 -239.0712 1420 1.0972709e-38
59.641529 -238.56612 1417 1.0788318e-38
57.00816 -238.39775 1416 1.0420257e-38
73.170715 -243.03131 1428 3.7792753e-39
70.55748 -243.03131 1428 4.7934273e-39
67.849075 -242.69093 1426 5.0696568e-39
65.102249 -242.18036 1423 5.7150262e-39
62.41032 -241.83998 1421 6.1760044e-39
59.599438 -240.98903 1416 6.1760044e-39
57.00816 -240.98903 1416 6.4533115e-39
43.27401 -239.27982 1391 3.2264645e-39
40.6992 -239.10779 1390 3.7792753e-39
38.155499 -239.10779 1390 3.5026884e-39
35.534939 -238.59174 1387 3.3182972e-39
32.94915 -238.2477 1385 2.857319e-39
30.37068 -237.90366 1383 2.9491573e-39
27.83979 -237.90366 1383 3.0417103e-39
62.293198 -154.3788 1480 2.2133902e-39
59.625057 -154.48311 1481 2.1211945e-39
57.06855 -154.90034 1485 1.9368047e-39
54.277798 -154.69173 1483 1.5680222e-39
64.606316 -156.13194 1471 4.7934273e-39
61.78812 -155.81352 1468 2.0290003e-39
58.9809 -155.4951 1465 1.844609e-39
56.29995 -155.4951 1465 1.4758265e-39
53.582397 -155.38896 1464 1.1988837e-39
50.903278 -155.38896 1464 1.5676662e-39
67.527 -159.36372 1476 1.4751276e-38
64.474556 -158.49995 1468 1.6410797e-38
61.619759 -158.06807 1464 1.5766513e-38
58.819859 -157.74417 1461 1.5858712e-38
56.146229 -157.74417 1461 1.5859434e-38
53.399399 -157.52823 1459 1.613602e-38
50.729427 -157.52823 1459 1.6228216e-38
67.755745 -162.6138 1481 2.4888995e-39
64.650238 -161.6256 1472 1.4751641e-38
61.746029 -161.0766 1467 1.3369796e-38
58.860119 -160.5276 1462 1.37393e-38
56.1078 -160.308 1460 1.4200278e-38
53.362801 -160.08839 1458 1.4569061e-38
50.69466 -160.08839 1458 1.4569061e-38
68.396248 -166.88684 1495 3.1342689e-39
64.869843 -164.8775 1477 1.5950184e-38
61.872299 -164.0961 1470 1.475201e-38
58.9809 -163.53795 1465 1.5029318e-38
56.184658 -163.20306 1462 1.5030039e-38
53.399399 -162.86816 1459 1.521443e-38
68.762245 -170.53038 1503 3.7792753e-39
65.001602 -167.92079 1480 5.1625755e-39
61.998569 -167.12657 1473 8.5748998e-39
58.9809 -166.2189 1465 9.8663617e-39
56.184658 -165.87851 1462 1.0328062e-38
53.362801 -165.42468 1458 1.0604648e-38
68.075996 -171.55151 1488 3.595247e-39
64.781998 -170.05275 1475 3.1349919e-39
61.78812 -169.24571 1468 1.2354923e-38
58.860119 -168.55397 1462 1.3001015e-38
56.1078 -168.32339 1460 1.1803192e-38
70.323242 -173.10336 1478 2.8584078e-39
67.206749 -172.04927 1469 2.1212057e-39
64.211037 -171.22943 1462 1.0510654e-38
61.32513 -170.64383 1457 1.6781756e-38
58.49778 -170.17535 1453 1.8717508e-38
55.800358 -170.05824 1452 1.8902621e-38
53.1432 -170.05824 1452 1.9363599e-38
73.373848 -176.64075 1485 3.3179399e-39
69.847435 -174.61859 1468 7.0072112e-39
66.703499 -173.42909 1458 1.9823491e-38
63.85968 -172.95329 1454 2.0192274e-38
61.030499 -172.47749 1450 1.9270683e-38
58.256218 -172.12065 1447 1.871823e-38
55.608208 -172.12065 1447 1.8626034e-38
52.996799 -172.23959 1448 1.8902624e-38
73.126801 -178.75439 1480 4.0565937e-39
69.561958 -176.58035 1462 1.8070695e-38
66.429001 -175.37256 1452 1.6412617e-38
63.552238 -174.76866 1447 1.6412619e-38
60.820049 -174.5271 1445 1.7242379e-38
58.095181 -174.28554 1443 1.807214e-38
55.454491 -174.28554 1443 1.7611162e-38
52.740601 -174.04398 1441 1.7703357e-38
50.068798 -173.9232 1440 1.751861e-38
47.400658 -173.80241 1439 1.7334219e-38
44.798401 -173.9232 1440 1.7610806e-38
72.978569 -181.09497 1477 1.382933e-38
69.371635 -178.76538 1458 1.4014445e-38
66.337502 -177.7845 1450 1.3831495e-38
63.552238 -177.41667 1447 1.4567984e-38
60.777958 -177.04884 1444 1.3185406e-38
58.01466 -176.681 1441 1.4475789e-38
55.377628 -176.681 1441 1.4845291e-38
52.521 -175.94534 1435 1.5305549e-38
49.755871 -175.45491 1431 1.5306271e-38
47.071259 -175.20969 1429 1.5305915e-38
44.51841 -175.45491 1431 1.5490306e-38
42.104641 -176.31317 1438 1.5489586e-38
77.26992 -187.65552 1508 3.0420732e-39
72.78093 -183.30011 1473 1.2631865e-38
69.228897 -181.0602 1455 1.1617358e-38
66.246002 -180.18912 1448 1.2355645e-38
63.464397 -179.8158 1445 1.3277601e-38
60.693779 -179.44247 1442 1.309321e-38
57.853619 -178.82028 1437 1.309321e-38
55.10862 -178.44696 1434 3.5048647e-39
44.425079 -177.70032 1428 1.3092856e-38
42.0168 -178.5714 1435 1.2816269e-38
77.218681 -190.28888 1507 2.2133902e-39
72.682106 -185.74316 1471 1.1709906e-38
69.038582 -183.21777 1451 1.1249296e-38
66.108749 -182.46014 1445 1.1987947e-38
63.37656 -182.20761 1443 1.1247498e-38
60.6096 -181.8288 1440 3.2264785e-39
57.853619 -181.44998 1437 9.4975806e-39
55.10862 -181.07118 1434 1.309393e-38
44.362858 -180.06102 1426 6.2754321e-39
41.958241 -180.9449 1433 1.2631524e-38
77.218681 -193.04669 1507 1.4758391e-39
72.682106 -188.43509 1471 6.3629292e-39
68.94342 -185.6169 1449 5.1640441e-39
66.01725 -184.8483 1443 4.8028132e-39
63.244801 -184.46399 1440 8.3408087e-40
60.525417 -184.20779 1438 4.1520375e-39
57.813358 -183.9516 1436 2.6772592e-39
55.10862 -183.6954 1434 4.6162723e-39
52.301399 -183.0549 1429 4.3393239e-39
47.005379 -182.79869 1427 5.7222583e-39
44.456188 -183.0549 1429 5.8209336e-39
76.962479 -195.15486 1502 1.936097e-39
68.800682 -187.87877 1446 5.2562411e-39
65.879997 -187.0992 1440 4.8950088e-39
63.113037 -186.70941 1437 5.5371342e-39
60.399147 -186.44954 1435 5.9044748e-39
57.773098 -186.44954 1435 7.1019404e-39
55.10862 -186.31961 1434 4.5204627e-39
52.337997 -185.7999 1430 5.814454e-39
49.616791 -185.41011 1427 5.1690846e-39
47.005379 -185.41011 1427 4.9911729e-39
44.425079 -185.54004 1428 5.6293424e-39
68.800682 -190.52496 1446 1.0786875e-38
65.879997 -189.73439 1440 1.1711716e-38
63.113037 -189.33911 1437 1.1435129e-38
60.357059 -188.94383 1434 5.6268047e-39
57.652317 -188.68031 1432 3.6046385e-39
54.993328 -188.54855 1431 7.5618367e-39
52.337997 -188.41679 1430 1.2631876e-38
49.616791 -188.02151 1427 1.2170543e-38
47.038319 -188.15327 1428 1.1341503e-38
44.456188 -188.28503 1429 9.4983135e-39
68.705521 -192.90396 1444 1.0048944e-38
65.879997 -192.3696 1440 1.1157101e-38
63.15696 -192.10242 1438 1.161808e-38
60.357059 -191.56805 1434 4.8888837e-39
57.692577 -191.43446 1433 1.1434053e-38
54.954899 -191.03369 1430 1.2263815e-38
52.228199 -190.63292 1427 1.2262739e-38
49.512478 -190.23216 1424 9.8663729e-39
46.939499 -190.36575 1425 9.4983135e-39
44.362858 -190.49934 1426 9.5901406e-39
68.705521 -195.54648 1444 1.1433687e-38
65.834251 -194.86937 1439 1.1986863e-38
63.069118 -194.46312 1436 1.2079058e-38
60.357059 -194.19228 1434 1.2079779e-38
57.692577 -194.05685 1433 1.1803192e-38
54.954899 -193.65059 1430 1.1987583e-38
46.840679 -192.56723 1422 9.221358e-39
44.362858 -193.10892 1426 8.9447712e-39
68.705521 -198.189 1444 1.1525884e-38
65.834251 -197.50275 1439 1.1894667e-38
63.069118 -197.091 1436 1.1895387e-38
60.357059 -196.8165 1434 1.16188e-38
57.692577 -196.67924 1433 1.1526605e-38
54.993328 -196.40474 1431 1.1803192e-38
44.30064 -195.444 1424 9.3135537e-39
80.666397 -211.4016 1520 2.7647661e-39
68.705521 -200.83151 1444 1.0788319e-38
65.788498 -199.99704 1438 1.1710996e-38
62.937359 -199.30164 1433 1.078976e-38
60.230789 -199.02348 1431 1.1158542e-38
57.5718 -198.8844 1430 1.1250382e-38
54.993328 -199.02348 1431 9.9596434e-39
52.081799 -197.91084 1423 8.5767089e-39
46.807739 -197.63268 1421 9.4986666e-39
44.39397 -198.46716 1427 1.08816e-38
80.878677 -214.74684 1524 2.8569645e-39
68.562782 -203.0513 1441 9.3142739e-39
65.696999 -202.34676 1436 1.1803557e-38
62.89344 -201.78311 1432 7.9320584e-39
60.188698 -201.5013 1430 6.9182694e-39
57.53154 -201.36038 1429 1.0974157e-38
55.07019 -201.92403 1433 1.1803917e-38
52.191601 -200.93765 1426 7.9313409e-39
44.362858 -200.93765 1426 1.069721e-38
80.719467 -217.10753 1521 2.8569617e-39
68.515198 -205.54559 1440 8.6689045e-39
65.605499 -204.68916 1434 1.0144036e-38
62.805599 -204.11819 1430 9.1309645e-39
60.104519 -203.83272 1428 1.0790486e-38
57.451019 -203.68997 1427 1.0052921e-38
54.993328 -204.26094 1431 1.1159268e-38
52.228199 -203.68997 1427 8.1160923e-39
68.467621 -208.03622 1439 1.0697208e-38
65.605499 -207.31337 1434 1.0512819e-38
62.805599 -206.73509 1430 1.0420983e-38
60.104519 -206.44595 1428 7.103018e-39
57.451019 -206.30139 1427 7.9327786e-39
52.337997 -206.73509 1430 1.032879e-38
44.425079 -206.44595 1428 8.9454956e-39
68.420036 -210.52319 1438 8.9451271e-39
65.605499 -209.93759 1434 1.0512817e-38
62.805599 -209.35199 1430 9.9596434e-39
60.104519 -209.05919 1428 7.4710802e-39
57.410759 -208.7664 1426 7.7476671e-39
68.277298 -212.71005 1435 1.0604648e-38
65.559746 -212.41359 1433 1.1065271e-38
62.849518 -212.11713 1431 1.171064e-38
60.188698 -211.9689 1430 1.0973795e-38
57.451019 -211.5242 1427 1.1158187e-38
68.086975 -214.73586 1431 1.0327341e-38
65.376747 -214.43573 1429 8.1153664e-39
62.717758 -214.28568 1428 8.2994018e-39
60.14661 -214.43573 1429 9.3135537e-39
57.451019 -214.13562 1427 8.7603799e-39
68.086975 -217.35458 1431 8.9451271e-39
65.239502 -216.59514 1426 9.1295183e-39
62.67384 -216.74702 1427 1.0512453e-38
60.104519 -216.89891 1428 8.7600156e-39
57.451019 -216.74702 1427 9.405385e-39
68.039398 -219.8196 1430 8.6685402e-39
65.193748 -219.05099 1425 9.3139096e-39
62.54208 -218.89728 1424 8.9451271e-39
59.978249 -219.05099 1425 9.3139096e-39
57.289978 -218.74356 1423 1.0050754e-38
54.839607 -219.35843 1427 8.4834287e-39
67.991821 -222.28094 1429 1.1157822e-38
65.193748 -221.65875 1425 1.1250382e-38
62.585999 -221.65875 1425 1.2170898e-38
59.936157 -221.50319 1424 1.1802837e-38
57.249718 -221.19209 1422 1.1619521e-38
54.839607 -221.96985 1427 1.2171973e-38
44.20731 -221.03654 1421 2.4972302e-39
41.636158 -221.19209 1422 1.3937707e-39
39.061348 -221.34764 1423 1.4834412e-39
67.89666 -224.58125 1427 1.0235866e-38
65.147995 -224.10912 1424 1.014367e-38
62.498158 -223.95174 1423 1.2355303e-38
59.851978 -223.79436 1422 1.1065285e-38
57.169197 -223.4796 1420 4.6126584e-39
54.68589 -223.95174 1423 7.3785216e-39
52.118401 -224.10912 1424 9.5868573e-39
46.774799 -223.4796 1420 4.8943025e-39
44.20731 -223.63698 1421 3.2373203e-39
41.60688 -223.63698 1421 3.0493264e-39
39.033897 -223.79436 1422 5.5328378e-39
67.849075 -227.03346 1426 6.458764e-39
65.147995 -226.71504 1424 6.5837206e-40
62.498158 -226.55583 1423 5.679771e-40
59.809891 -226.23741 1421 9.3783862e-40
57.209457 -226.23741 1421 2.3186137e-39
54.647457 -226.39662 1422 5.7226143e-39
52.008598 -226.23741 1421 1.0691763e-38
46.6101 -225.28215 1415 5.9084517e-39
44.113979 -225.75978 1418 2.3164388e-39
41.577599 -226.0782 1420 3.7861501e-39
67.849075 -229.64304 1426 1.3966588e-39
65.056496 -228.99887 1422 1.7665217e-39
62.41032 -228.83783 1421 1.8605152e-39
59.725708 -228.51576 1419 1.4913753e-39
57.169197 -228.67679 1420 1.0289552e-39
54.49374 -228.35472 1418 1.1204236e-39
46.57716 -227.71056 1414 2.5022706e-39
44.145088 -228.51576 1419 1.5821248e-39
41.636158 -228.99887 1422 2.8702965e-39
39.033897 -228.99887 1422 3.8812002e-39
67.89666 -232.41548 1427 1.1189831e-39
65.056496 -231.60114 1422 5.6617643e-40
62.41032 -231.43826 1421 3.8287258e-40
59.767799 -231.27539 1420 1.3368387e-41
57.169197 -231.27539 1420 1.9847011e-40
54.49374 -230.94966 1418 1.5821248e-39
51.715797 -230.1353 1413 8.4383671e-40
44.051758 -230.62392 1416 1.0285965e-39
41.60688 -231.43826 1421 1.8554719e-39
7.7957997 -231.27539 1420 2.3048627e-39
67.753922 -234.53279 1424 1.1135755e-39
64.964996 -233.87399 1420 4.7144865e-40
62.366398 -233.87399 1420 1.2090263e-39
59.725708 -233.70929 1419 3.8178237e-40
57.169197 -233.87399 1420 8.4383671e-40
54.455311 -233.3799 1417 1.1211327e-39
46.54422 -232.7211 1413 9.3602113e-40
44.08287 -233.3799 1417 8.4311644e-40
41.60688 -234.0387 1421 8.438255e-40
67.753922 -237.13872 1424 1.1435128e-38
64.964996 -236.4726 1420 1.1712071e-38
62.322479 -236.30606 1419 1.1804265e-38
59.68362 -236.13954 1418 1.1988302e-38
57.128941 -236.30606 1419 1.1803912e-38
54.49374 -236.13954 1418 1.1803556e-38
51.862198 -235.97301 1417 1.2357086e-38
49.199551 -235.63994 1415 1.2448574e-38
46.64304 -235.80647 1416 1.2356379e-38
44.113979 -236.13954 1418 1.2539692e-38
41.577599 -236.4726 1420 1.1987947e-38
80.726791 -239.57628 1423 3.1339059e-39
78.452095 -240.58644 1429 3.1339059e-39
75.890099 -240.75479 1430 2.9495147e-39
73.170715 -240.41808 1428 9.6801614e-39
70.458656 -240.08136 1426 9.4042976e-39
67.65876 -239.40791 1422 1.041917e-38
64.964996 -239.0712 1420 1.1802104e-38
62.322479 -238.90283 1419 1.0512807e-38
59.641529 -238.56612 1417 1.0144025e-38
57.04842 -238.56612 1417 1.0881235e-38
54.378448 -238.2294 1415 1.014367e-38
51.8256 -238.39775 1416 1.0328062e-38
49.269089 -238.56612 1417 1.1526249e-38
46.70892 -238.73448 1418 9.9599993e-39
44.176201 -239.0712 1420 1.0974151e-38
41.548321 -238.90283 1419 1.078976e-38
38.979 -239.0712 1420 1.0881235e-38
72.863281 -242.01018 1422 3.2261016e-39
70.409248 -242.52075 1425 4.9778185e-39
67.65876 -242.01018 1422 5.2544054e-39
64.964996 -241.6698 1420 6.0838087e-39
62.322479 -241.4996 1419 5.7157493e-39
59.641529 -241.15923 1417 6.3603984e-39
57.04842 -241.15923 1417 6.1763715e-39
54.416878 -240.98903 1416 6.8210207e-39
51.862198 -241.15923 1417 6.8210207e-39
49.269089 -241.15923 1417 7.0976076e-39
46.70892 -241.32942 1418 7.2819988e-39
44.145088 -241.4996 1419 6.728825e-39
41.577599 -241.6698 1420 6.8210207e-39
38.979 -241.6698 1420 6.5444338e-39
56.837971 -154.27449 1479 1.5683865e-39
54.167999 -154.3788 1480 1.2918024e-39
51.355289 -154.06587 1477 1.1996068e-39
48.553558 -153.75293 1474 1.3832778e-39
45.825027 -153.64862 1473 1.4754734e-39
43.39296 -154.58742 1482 1.4754734e-39
64.650238 -156.23808 1472 4.0558622e-39
61.746029 -155.70738 1467 2.1215603e-39
59.02116 -155.60124 1466 1.5683893e-39
56.338379 -155.60124 1466 1.2918024e-39
53.655598 -155.60124 1466 1.3832778e-39
50.903278 -155.38896 1464 1.2910821e-39
37.687019 -156.13194 1471 1.6228216e-38
35.161621 -156.87492 1478 1.6043825e-38
32.76432 -158.36087 1492 1.6043103e-38
64.474556 -158.49995 1468 1.6318244e-38
61.619759 -158.06807 1464 1.5489929e-38
58.860119 -157.85214 1462 1.5490651e-38
56.146229 -157.74417 1461 1.5951273e-38
53.472599 -157.74417 1461 1.622786e-38
50.764198 -157.6362 1460 1.6043469e-38
37.584538 -158.39198 1467 1.6043825e-38
35.042671 -159.03981 1473 1.6135299e-38
32.54472 -160.01154 1482 1.6871775e-38
61.78812 -161.1864 1468 1.3461991e-38
58.940639 -160.74719 1464 1.3831495e-38
56.223087 -160.63739 1463 1.4015887e-38
53.472599 -160.4178 1461 1.4476865e-38
50.764198 -160.308 1460 1.4569061e-38
48.0924 -160.308 1460 1.4845647e-38
45.420601 -160.308 1460 1.4845647e-38
42.807358 -160.5276 1462 1.4845647e-38
40.214249 -160.85699 1465 1.4845647e-38
37.63578 -161.2962 1469 1.4476865e-38
35.090248 -161.955 1475 1.4199556e-38
59.02116 -163.64958 1466 1.4844927e-38
56.223087 -163.31468 1463 1.4937843e-38
53.509197 -163.20306 1462 1.5306626e-38
50.798969 -163.09143 1461 1.5491017e-38
48.12534 -163.09143 1461 1.6044191e-38
45.45171 -163.09143 1461 1.6228582e-38
42.836639 -163.31468 1463 1.6412973e-38
40.241699 -163.64958 1466 1.6228582e-38
37.687019 -164.20773 1471 1.5398821e-38
58.940639 -166.10544 1464 9.9585573e-39
56.184658 -165.87851 1462 1.014367e-38
53.472599 -165.76506 1461 1.0420257e-38
50.798969 -165.76506 1461 1.0973431e-38
48.12534 -165.76506 1461 1.0881235e-38
45.482819 -165.87851 1462 1.1250018e-38
42.865921 -166.10544 1464 1.0604292e-38
40.26915 -166.44582 1467 1.0512097e-38
37.712639 -167.01312 1472 1.0420257e-38
58.779598 -168.32339 1460 1.2171974e-38
55.992508 -167.97752 1457 1.2633673e-38
53.362801 -168.09282 1458 1.1803912e-38
50.729427 -168.2081 1459 1.2357086e-38
48.0924 -168.32339 1460 1.1342213e-38
45.45171 -168.43869 1461 1.1341858e-38
42.807358 -168.55397 1462 1.1895031e-38
40.241699 -169.01514 1466 1.318577e-38
37.63578 -169.36101 1469 1.3370161e-38
61.409309 -170.87808 1459 1.7243454e-38
58.5783 -170.40959 1455 1.8626388e-38
55.838787 -170.17535 1453 1.9087011e-38
53.179798 -170.17535 1453 1.9363599e-38
50.520809 -170.17535 1453 1.9271403e-38
47.86182 -170.17535 1453 1.9455797e-38
45.202827 -170.17535 1453 1.9547993e-38
42.602398 -170.40959 1455 1.9271406e-38
40.077 -170.99519 1460 1.9455797e-38
37.45644 -171.22943 1462 1.834945e-38
34.899929 -171.81503 1467 2.0746532e-38
63.903599 -173.07225 1455 1.9916407e-38
61.07259 -172.59645 1451 1.9179206e-38
58.336739 -172.35855 1449 1.8533837e-38
55.68507 -172.35855 1449 1.8810425e-38
52.996799 -172.23959 1448 1.8994816e-38
50.312187 -172.12065 1447 1.9271406e-38
47.664181 -172.12065 1447 1.9271406e-38
45.016171 -172.12065 1447 1.9179211e-38
42.397438 -172.23959 1448 1.8994819e-38
39.829948 -172.59645 1451 1.8902624e-38
37.25148 -172.95329 1454 1.8810428e-38
34.662029 -173.31015 1457 2.0377751e-38
32.105518 -173.90489 1462 2.1575572e-38
66.474747 -175.49333 1453 1.6136386e-38
63.640079 -175.01022 1449 1.6597364e-38
60.904228 -174.76866 1447 1.7242378e-38
58.175697 -174.5271 1445 1.7703356e-38
55.49292 -174.40631 1444 1.7611162e-38
42.280319 -174.40631 1444 1.7427494e-38
39.72015 -174.76866 1447 1.770408e-38
37.123379 -175.01022 1449 1.8072863e-38
34.566868 -175.49333 1453 1.7150907e-38
31.973759 -175.85568 1456 1.7058711e-38
29.430059 -176.58035 1462 1.8256531e-38
66.291748 -177.66188 1449 1.4015166e-38
63.50832 -177.29405 1446 1.2263449e-38
60.777958 -177.04884 1444 1.4291397e-38
58.01466 -176.681 1441 1.4476509e-38
39.637798 -177.04884 1444 1.4937489e-38
37.04652 -177.29405 1446 1.447651e-38
34.47171 -177.66188 1449 1.4844937e-38
31.907879 -178.15233 1453 1.4752741e-38
29.349539 -178.76538 1458 1.447651e-38
69.038582 -180.56244 1451 1.1526239e-38
66.108749 -179.8158 1445 1.2355645e-38
63.37656 -179.56691 1443 1.2816623e-38
60.693779 -179.44247 1442 1.2909539e-38
42.1632 -179.1936 1440 1.2724793e-38
39.55545 -179.31804 1441 1.2632596e-38
36.944038 -179.44247 1442 1.2632596e-38
34.376549 -179.8158 1445 1.2540402e-38
31.86396 -180.56244 1451 1.2724793e-38
29.26902 -180.93576 1454 1.2355289e-38
68.94342 -182.96523 1449 1.0972709e-38
66.062996 -182.33388 1444 1.1895752e-38
63.37656 -182.20761 1443 1.0052195e-38
60.6096 -181.8288 1440 2.307762e-39
36.86718 -181.70253 1439 1.180356e-38
34.281391 -181.95506 1441 1.1896108e-38
31.776119 -182.71269 1447 1.1988303e-38
29.22876 -183.34404 1452 1.1894677e-38
68.848259 -185.3607 1447 5.4413512e-39
66.062996 -184.97639 1444 5.2587508e-39
63.37656 -184.8483 1443 1.3854582e-39
60.6096 -184.46399 1440 4.2445877e-39
42.046078 -183.9516 1436 5.3534758e-39
39.418198 -183.9516 1436 5.5364265e-39
36.84156 -184.20779 1438 5.4435247e-39
34.257599 -184.46399 1440 5.8130106e-39
31.732199 -185.10449 1445 6.3661872e-39
66.108749 -187.74884 1445 4.3418378e-39
63.420479 -187.61891 1444 5.4449386e-39
60.567509 -186.96927 1439 5.6268131e-39
57.732838 -186.31961 1434 6.9171918e-39
39.3633 -186.31961 1434 5.4449526e-39
36.84156 -186.83934 1438 5.1683643e-39
34.257599 -187.0992 1440 3.8833876e-39
31.75416 -187.87877 1446 1.7625448e-39
66.108749 -190.3932 1445 1.2080144e-38
63.288719 -189.86615 1441 1.0605014e-38
60.48333 -189.33911 1437 8.4845147e-39
42.046078 -189.20735 1436 5.5371482e-39
39.445648 -189.33911 1437 5.3527555e-39
36.86718 -189.60263 1439 8.8518665e-39
34.30518 -189.99791 1442 9.0358948e-39
65.971497 -192.63678 1442 1.1065627e-38
63.200878 -192.23601 1439 7.8391453e-39
60.399147 -191.70164 1435 5.9952327e-39
57.652317 -191.30087 1432 1.0881601e-38
55.031757 -191.30087 1432 1.2355655e-38
41.958241 -191.43446 1433 9.5908706e-39
39.418198 -191.83524 1436 8.8518665e-39
36.892799 -192.3696 1440 8.9444166e-39
34.30518 -192.63678 1442 1.0973076e-38
65.879997 -195.00479 1440 1.16188e-38
63.0252 -194.3277 1435 1.1803192e-38
60.357059 -194.19228 1434 1.2171618e-38
57.652317 -193.92143 1432 1.1802836e-38
54.954899 -193.65059 1430 1.1895031e-38
42.0168 -194.3277 1435 8.3915988e-39
39.418198 -194.46312 1436 9.9589245e-39
36.86718 -194.86937 1439 9.0369682e-39
65.834251 -197.50275 1439 1.1710996e-38
63.0252 -196.95375 1435 1.1987583e-38
60.314968 -196.67924 1433 1.1710996e-38
